ply
format ascii 1.0
element vertex 735
property float x
property float y
property float z
end_header
0.0425381362438201904 0.297046899795532227 0.116133846342563629
-0.281671434640884399 -0.166522949934005737 0.141871511936187744
0.221643939614295959 0.221401959657669067 0.173163682222366333
-0.0463687218725681305 0.281718313694000244 -0.196344584226608276
0.0236040856689214706 0.0652829259634017944 0.196344077587127686
-0.145049929618835449 0.286579996347427368 -0.0981802418828010559
-0.299586564302444458 -0.050306372344493866 -0.0513642281293869019
-0.166947424411773682 -0.0350645631551742554 0.196344077587127686
0.0946565940976142883 0.313237518072128296 0.193238884210586548
0.226142004132270813 0.174982950091362 0.196344077587127686
-0.0979099199175834656 0.312201082706451416 0.0555077828466892242
-0.270740091800689697 0.025443272665143013 -0.196344584226608276
0.140061438083648682 0.263412922620773315 0.192505165934562683
-0.279300212860107422 0.170511722564697266 -0.0617245733737945557
0.142511874437332153 0.248720794916152954 0.139237135648727417
-0.284652799367904663 0.0560899525880813599 0.104140475392341614
-0.05142989382147789 -0.0396196581423282623 0.196344077587127686
-0.0246850904077291489 0.281302213668823242 -0.0237139426171779633
0.208736419677734375 0.21506403386592865 0.125710234045982361
-0.261817485094070435 -0.0153238661587238312 -0.196344584226608276
-0.323488146066665649 -0.0493365935981273651 0.173659205436706543
-0.014133187010884285 -0.144368976354598999 0.196344077587127686
-0.143748834729194641 -0.245455801486968994 0.150860309600830078
-0.318092554807662964 0.0390700288116931915 0.196344077587127686
-0.32698407769203186 -0.0123473117128014565 -0.0373373106122016907
-0.273312628269195557 -0.179929062724113464 0.179196581244468689
-0.15516895055770874 0.227889016270637512 0.140900194644927979
-0.325883030891418457 -0.0295388512313365936 0.164992019534111023
0.14057476818561554 0.271103590726852417 0.0500688254833221436
-0.281756103038787842 -0.166416183114051819 -0.032319679856300354
-0.114210084080696106 -0.201759874820709229 0.196344077587127686
-0.215334802865982056 -0.217891588807106018 0.0848179236054420471
-0.327104032039642334 -0.00864483974874019623 -0.126660615205764771
-0.202528372406959534 0.213603153824806213 0.0366657264530658722
0.0755178704857826233 0.318374991416931152 0.0175833888351917267
-0.259459465742111206 -0.107258141040802002 0.1302977055311203
-0.148398861289024353 -0.0297783873975276947 0.196344077587127686
-0.229444772005081177 -0.22809232771396637 0.0381640270352363586
-0.326933056116104126 -0.0138397105038166046 -0.170947909355163574
-0.173641234636306763 0.216064229607582092 -0.0673000067472457886
-0.2670116126537323 0.0731025561690330505 0.169870451092720032
-0.158575087785720825 -0.224885702133178711 0.183370485901832581
-0.265621840953826904 -0.0543759502470493317 0.196344077587127686
-0.265721589326858521 -0.190949395298957825 -0.0348562784492969513
0.117020919919013977 0.305563211441040039 0.111255869269371033
-0.199848324060440063 -0.0203913412988185883 0.196344077587127686
0.283341586589813232 0.163671836256980896 0.14647182822227478
-0.296431124210357666 -0.0301423054188489914 -0.196344584226608276
0.113455615937709808 0.0898140221834182739 0.196344077587127686
-0.070071101188659668 -0.0493885427713394165 0.196344077587127686
-0.317435950040817261 -0.0493709668517112732 0.167026475071907043
-0.201068997383117676 -0.213283374905586243 0.0348264314234256744
-0.261040210723876953 -0.0867011770606040955 0.0513099655508995056
-0.0630707070231437683 -0.0989426523447036743 0.196344077587127686
-0.283127874135971069 0.0570489615201950073 0.136938557028770447
-0.178136825561523438 0.206234142184257507 -0.196344584226608276
-0.0709442794322967529 0.023944508284330368 0.196344077587127686
-0.196818932890892029 0.0938862636685371399 -0.196344584226608276
-0.323232710361480713 -0.0501728691160678864 0.134385630488395691
-0.145050570368766785 -0.242394894361495972 0.141879960894584656
-0.140655726194381714 -0.0994994118809700012 0.196344077587127686
0.0505882389843463898 0.0454248860478401184 0.196344077587127686
-0.175314337015151978 -0.0524690300226211548 0.196344077587127686
-0.204276323318481445 0.204735875129699707 0.196344077587127686
-0.22544415295124054 0.207887575030326843 0.196344077587127686
-0.237372219562530518 0.225187242031097412 -0.00684319762513041496
-0.0468058399856090546 0.303960502147674561 0.12357126921415329
0.14024411141872406 0.261440455913543701 -0.0569804459810256958
-0.321226000785827637 0.0170146208256483078 -0.196344584226608276
-0.0895602479577064514 0.168079063296318054 0.196344077587127686
0.126842126250267029 0.301633119583129883 0.0365833044052124023
-0.280993819236755371 0.167679309844970703 0.176698654890060425
-0.248269706964492798 -0.21314789354801178 -0.0171420462429523468
-0.32561337947845459 0.0323871150612831116 -0.118486583232879639
0.0310109648853540421 -0.158221185207366943 0.196344077587127686
-0.190425440669059753 0.212503582239151001 0.137195467948913574
0.0917227119207382202 -0.0904773324728012085 0.196344077587127686
-0.139361724257469177 -0.194738402962684631 0.196344077587127686
-0.144690915942192078 -0.286026924848556519 0.195308521389961243
0.20858415961265564 0.215126082301139832 0.189719557762145996
-0.0281758308410644531 -0.153939723968505859 0.196344077587127686
-0.0578063167631626129 0.151140600442886353 -0.196344584226608276
-0.278450906276702881 0.0350714698433876038 0.196344077587127686
-0.298573493957519531 -0.050553392618894577 -0.0553106814622879028
-0.281485080718994141 -0.166828006505966187 -0.00315780914388597012
0.221278592944145203 0.129765346646308899 0.196344077587127686
-0.326028883457183838 0.0277863834053277969 0.0305402334779500961
-0.285480260848999023 -0.159956812858581543 -0.0238343831151723862
0.0822748765349388123 0.316700071096420288 -0.0445851311087608337
0.0192763097584247589 0.278570353984832764 0.0139560699462890625
-0.00703224167227745056 -0.11900503933429718 0.196344077587127686
0.00657803239300847054 0.275500327348709106 0.0090952608734369278
-0.0541061237454414368 -0.176385357975959778 0.196344077587127686
-0.0275721214711666107 0.153001666069030762 0.196344077587127686
0.151198342442512512 0.0977938994765281677 0.196344077587127686
-0.113936066627502441 -0.0662347450852394104 0.196344077587127686
-0.140645056962966919 0.133578971028327942 0.196344077587127686
0.0838423818349838257 0.114044204354286194 0.196344077587127686
0.101565100252628326 0.311063945293426514 -0.104543901979923248
0.244966328144073486 0.0726693198084831238 0.196344077587127686
-0.298815220594406128 -0.0503444448113441467 -0.114744096994400024
-0.155079111456871033 0.228010475635528564 -0.173232346773147583
-0.105458281934261322 -0.232069239020347595 0.196344077587127686
-0.181027457118034363 0.0976686924695968628 -0.196344584226608276
-0.279597818851470947 -0.169989302754402161 0.144622981548309326
0.00312120513990521431 0.275108546018600464 0.16193784773349762
-0.22500590980052948 0.0546976551413536072 0.196344077587127686
-0.296009451150894165 -0.0511649660766124725 -0.0430143550038337708
-0.116506092250347137 0.124069914221763611 -0.196344584226608276
0.142406642436981201 0.29457777738571167 0.0776391178369522095
-0.264673501253128052 0.12496601790189743 0.0820063874125480652
-0.306096732616424561 -0.0492481887340545654 -0.101573951542377472
-0.175732597708702087 0.101522311568260193 0.196344077587127686
0.141767904162406921 0.251393407583236694 0.145112738013267517
-0.220880046486854553 0.0527825430035591125 -0.196344584226608276
-0.245278045535087585 -0.216596141457557678 0.169950082898139954
-0.0888089686632156372 0.181788980960845947 -0.196344584226608276
-0.325300216674804688 0.0355112440884113312 0.162533417344093323
-0.268105864524841309 -0.187541425228118896 0.0277012176811695099
-0.0284508001059293747 0.283411979675292969 -0.0514553189277648926
-0.261084854602813721 0.0864434167742729187 -0.065693095326423645
0.00861207302659749985 0.25808987021446228 -0.196344584226608276
-0.0319782793521881104 0.233115315437316895 -0.196344584226608276
0.0553584694862365723 0.322487801313400269 0.0151923913508653641
0.140185683965682983 0.268479734659194946 0.142883941531181335
0.140907749533653259 0.274287104606628418 -0.0297030899673700333
-0.289549767971038818 -0.152390554547309875 0.0908472537994384766
-0.25645020604133606 -0.0139618432149291039 -0.196344584226608276
-0.304162263870239258 -0.049289356917142868 0.0753296166658401489
-0.237297222018241882 0.225270792841911316 -0.0804687142372131348
-0.134500980377197266 0.298296153545379639 -0.168146327137947083
-0.326771825551986694 0.0169052965939044952 0.140255361795425415
-0.190455600619316101 0.212583333253860474 -0.0600707940757274628
-0.236584022641181946 0.127303421497344971 0.196344077587127686
-0.159193664789199829 -0.224369212985038757 0.187035664916038513
-0.120031312108039856 0.290597081184387207 -0.196344584226608276
-0.158448278903961182 0.225021436810493469 -0.171327754855155945
-0.0380688533186912537 0.291632503271102905 -0.0607922673225402832
-0.179422885179519653 -0.0269884932786226273 0.196344077587127686
-0.283186972141265869 0.163945585489273071 -0.0406462624669075012
-0.268506020307540894 -0.0712156817317008972 -0.0407765917479991913
-0.151554763317108154 0.0412014052271842957 0.196344077587127686
-0.283735454082489014 -0.163001209497451782 -0.0795598104596138
-0.286798000335693359 0.157574683427810669 -0.179318815469741821
-0.14055459201335907 0.202552899718284607 -0.196344584226608276
-0.147944808006286621 0.0997575223445892334 0.196344077587127686
-0.253459811210632324 -0.206909149885177612 0.0235910210758447647
0.0837647542357444763 0.316314399242401123 -0.0284111965447664261
-0.0885618999600410461 0.251811772584915161 -0.196344584226608276
0.166213572025299072 0.148672685027122498 0.196344077587127686
-0.259150326251983643 -0.0985106602311134338 -0.0475397855043411255
0.0943598896265029907 0.313327878713607788 -0.176374062895774841
0.148076862096786499 0.195649400353431702 0.196344077587127686
-0.144279509782791138 0.285281360149383545 0.169360578060150146
-0.173428252339363098 -0.108311541378498077 0.196344077587127686
0.0114570055156946182 0.276296854019165039 -0.0420351177453994751
-0.141928881406784058 0.251101434230804443 -0.0859864205121994019
-0.0548677518963813782 0.206034541130065918 -0.196344584226608276
-0.282000035047531128 0.144563138484954834 -0.0813732519745826721
-0.0216696131974458694 0.279784142971038818 -0.00906427018344402313
0.150483027100563049 0.233485355973243713 0.190437957644462585
0.0443266667425632477 0.0488657280802726746 0.196344077587127686
0.261249929666519165 0.115876376628875732 0.179676920175552368
-0.18757908046245575 -0.0331683307886123657 0.196344077587127686
0.117983244359493256 0.169086143374443054 0.196344077587127686
-0.20407402515411377 0.213833332061767578 0.114487744867801666
0.0806508585810661316 0.317130953073501587 -0.19579741358757019
0.127558082342147827 -0.0393506772816181183 0.196344077587127686
-0.0880839526653289795 0.171529293060302734 -0.196344584226608276
0.0514083690941333771 0.318552970886230469 0.131236881017684937
-0.160358458757400513 0.0344423390924930573 -0.196344584226608276
-0.304218441247940063 -0.0494256839156150818 -0.166414842009544373
0.0427278429269790649 -0.076169915497303009 0.196344077587127686
-0.27384379506111145 -0.137485027313232422 0.0964803770184516907
-0.0748114883899688721 0.318540364503860474 0.0301660355180501938
-0.0466549843549728394 0.282247602939605713 -0.196344584226608276
-0.0771720856428146362 0.301349759101867676 0.196344077587127686
-0.327050089836120605 -0.00991250574588775635 -0.00438684364780783653
-0.147383213043212891 0.291464835405349731 0.0587018467485904694
-0.219886019825935364 0.158088475465774536 -0.196344584226608276
0.0715168789029121399 0.111658401787281036 0.196344077587127686
-0.32394823431968689 -0.0460059568285942078 -0.0384647175669670105
-0.227573081851005554 0.0440678521990776062 -0.196344584226608276
0.0440268255770206451 0.293252289295196533 0.196344077587127686
0.0608434490859508514 -0.0936470776796340942 0.196344077587127686
-0.0905471518635749817 0.130744025111198425 0.196344077587127686
-0.147242739796638489 0.0375767014920711517 0.196344077587127686
-0.221454322338104248 0.0971191227436065674 0.196344077587127686
-0.232064127922058105 0.159082502126693726 0.196344077587127686
-0.209976643323898315 0.094950161874294281 0.196344077587127686
0.0830170437693595886 0.0704021379351615906 0.196344077587127686
0.0713173076510429382 0.205692961812019348 0.196344077587127686
0.240492239594459534 0.131501257419586182 0.196344077587127686
-0.178215160965919495 0.214549928903579712 0.0847285985946655273
-0.255857735872268677 -0.203996315598487854 0.134620144963264465
-0.0983675122261047363 0.082226388156414032 0.196344077587127686
0.130528077483177185 0.300061315298080444 0.142392218112945557
-0.20196215808391571 0.213394671678543091 0.168981447815895081
0.228849485516548157 0.106734007596969604 0.196344077587127686
-0.187594383955001831 0.21279500424861908 -0.136619552969932556
-0.04934711754322052 0.3103446364402771 -0.0615235231816768646
-0.188401654362678528 0.212671607732772827 -0.0979448333382606506
-0.24161173403263092 -0.220665618777275085 0.0781549811363220215
-0.287417560815811157 -0.147511273622512817 0.0307014845311641693
-0.143990248441696167 0.284308314323425293 -0.152962133288383484
0.155780419707298279 0.224242508411407471 0.196344077587127686
-0.0348622985184192657 0.288250446319580078 -0.0383370071649551392
-0.196818903088569641 0.12544386088848114 0.196344077587127686
-0.284697055816650391 -0.0560744479298591614 -0.0351081974804401398
-0.260783344507217407 0.0875132083892822266 0.177571713924407959
-0.0535668507218360901 0.321509808301925659 -0.196344584226608276
-0.153253406286239624 0.230106189846992493 -0.030562547966837883
-0.259174972772598267 0.106102690100669861 -0.147276699542999268
-0.119384728372097015 0.0936395823955535889 -0.196344584226608276
0.0681945234537124634 0.320033341646194458 -0.196157351136207581
-0.251013338565826416 0.209925532341003418 -0.0883058309555053711
0.144429653882980347 0.244032934308052063 0.0596516281366348267
-0.21446479856967926 0.112468250095844269 -0.196344584226608276
-0.109039552509784698 0.308517515659332275 0.124944962561130524
-0.124363675713539124 -0.154513224959373474 0.196344077587127686
-0.239964917302131653 0.222480759024620056 0.093544885516166687
-0.00572261493653059006 -0.0578031055629253387 0.196344077587127686
-0.168413564562797546 -0.205873370170593262 0.196344077587127686
0.00832438003271818161 -0.0463494397699832916 0.196344077587127686
0.154327958822250366 0.228884413838386536 0.161254584789276123
-0.21097131073474884 0.216142773628234863 -0.0829923301935195923
-0.231285274028778076 0.229898840188980103 -0.151515334844589233
-0.0508481524884700775 0.314839541912078857 -0.180549129843711853
-0.237100869417190552 -0.199974566698074341 0.196344077587127686
-0.0317430868744850159 0.285887569189071655 0.0152551876381039619
-0.119545161724090576 0.137203902006149292 -0.196344584226608276
-0.215834766626358032 -0.218076020479202271 0.0310927629470825195
-0.126693174242973328 -0.0979863107204437256 0.196344077587127686
-0.261882930994033813 0.0838989987969398499 -0.174249589443206787
-0.0484775304794311523 0.308002561330795288 0.0488318055868148804
0.0253075715154409409 0.281601846218109131 -0.195652186870574951
-0.196156039834022522 -0.039906620979309082 0.196344077587127686
-0.1084938645362854 0.247578054666519165 0.196344077587127686
0.01137523353099823 -0.127604007720947266 0.196344077587127686
0.212525039911270142 0.216673195362091064 0.0199073925614356995
-0.171225994825363159 0.217140138149261475 0.113243244588375092
-0.0511389337480068207 0.317037343978881836 -0.0176539923995733261
0.0297202188521623611 -0.0807354003190994263 0.196344077587127686
-0.181575581431388855 0.213634297251701355 0.0606996268033981323
-0.271642088890075684 -0.135155647993087769 -0.104421608150005341
-0.181076362729072571 -0.167240649461746216 0.196344077587127686
-0.104622311890125275 0.310033321380615234 -0.0885770991444587708
-0.278178036212921143 0.141596317291259766 0.130142450332641602
-0.293680518865585327 0.0201482847332954407 0.196344077587127686
-0.261513471603393555 0.0848365724086761475 -0.174605518579483032
-0.281347572803497314 0.143956422805786133 0.189310580492019653
-0.259607195854187012 -0.0925892740488052368 -0.110545814037322998
0.0729155987501144409 0.0884431451559066772 0.196344077587127686
0.102145224809646606 0.161708027124404907 0.196344077587127686
0.0517822392284870148 0.320548951625823975 0.104934573173522949
-0.0624612234532833099 0.168635040521621704 0.196344077587127686
-0.291918039321899414 -0.0525550208985805511 -0.0730041265487670898
0.126257404685020447 0.270179569721221924 0.196344077587127686
-0.0280182454735040665 0.186942115426063538 -0.196344584226608276
-0.211369261145591736 0.216145113110542297 0.07781209796667099
-0.235190495848655701 0.00303147826343774796 -0.196344584226608276
-0.263312369585037231 0.0576986446976661682 -0.196344584226608276
0.0595248788595199585 -0.0179605148732662201 0.196344077587127686
-0.0145754702389240265 -0.0540441237390041351 0.196344077587127686
0.0494324490427970886 0.186800047755241394 0.196344077587127686
-0.221972227096557617 0.12636663019657135 0.196344077587127686
0.229502081871032715 0.217507630586624146 0.196344077587127686
0.140396073460578918 0.269121289253234863 0.024267539381980896
0.0462158061563968658 0.302911669015884399 -0.0147231984883546829
-0.278491020202636719 -0.141693532466888428 -0.036917712539434433
-0.0967435762286186218 0.312563329935073853 -0.103077895939350128
-0.12871849536895752 0.229600191116333008 -0.196344584226608276
-0.257021009922027588 0.202530056238174438 0.0258051995187997818
-0.185363292694091797 0.17085893452167511 -0.196344584226608276
-0.307521402835845947 0.0490965992212295532 0.0290869325399398804
-0.282781064510345459 -0.0573631562292575836 -0.0605554617941379547
-0.14038965106010437 0.260385304689407349 0.0312234442681074142
-0.0370058715343475342 0.286266863346099854 -0.196344584226608276
0.226917743682861328 0.225630044937133789 0.146317914128303528
-0.240313291549682617 0.173548460006713867 -0.196344584226608276
0.0125145083293318748 0.114324361085891724 0.196344077587127686
0.114550620317459106 0.306512653827667236 0.0850992947816848755
-0.0859295576810836792 -0.077553093433380127 0.196344077587127686
-0.156570792198181152 0.226644635200500488 -0.16157887876033783
-0.266618341207504272 0.128122821450233459 0.00088400708045810461
-0.0098295183852314949 -0.00724878069013357162 0.196344077587127686
-0.229112982749938965 0.0888359025120735168 0.196344077587127686
-0.104419469833374023 0.0990668982267379761 -0.196344584226608276
-0.284906983375549316 -0.160947635769844055 -0.0646665245294570923
-0.23621252179145813 0.226401448249816895 -0.0205139126628637314
-0.140516370534896851 0.258941769599914551 -0.089978434145450592
-0.280211359262466431 -0.0590556971728801727 0.136612057685852051
-0.250187575817108154 0.210897430777549744 -0.0712699964642524719
-0.288297146558761597 -0.147987917065620422 0.079122692346572876
-0.32687985897064209 0.0146584818139672279 0.0382936783134937286
0.0617680251598358154 0.220058053731918335 0.196344077587127686
-0.100098311901092529 0.311508774757385254 -0.085345737636089325
-0.312387645244598389 0.0488292872905731201 -0.108584240078926086
0.143861547112464905 0.245099499821662903 -0.0546553879976272583
-0.326744526624679565 0.01778431236743927 -0.178480789065361023
-0.203840449452400208 -0.213803485035896301 0.142850443720817566
0.140207067131996155 0.266423910856246948 0.169820293784141541
-0.24183344841003418 -0.123578444123268127 0.196344077587127686
-0.250471800565719604 -0.21057891845703125 0.180464863777160645
-0.229549288749694824 0.22819267213344574 0.0401995927095413208
-0.199215486645698547 -0.167150571942329407 0.196344077587127686
-0.0103655783459544182 0.276013761758804321 0.104458257555961609
-0.0648712590336799622 0.320726275444030762 -0.0177317708730697632
-0.136088728904724121 0.297578305006027222 -0.0660512298345565796
-0.159136354923248291 0.192113786935806274 -0.196344584226608276
-0.0933619365096092224 0.273627519607543945 0.196344077587127686
-0.283052504062652588 0.164167806506156921 -0.0907601490616798401
0.0284875873476266861 0.283625990152359009 0.178385555744171143
0.0101694921031594276 -0.135754615068435669 0.196344077587127686
-0.145487949252128601 0.241765767335891724 -0.0687443166971206665
0.124100141227245331 0.284656167030334473 0.196344077587127686
-0.00282271229662001133 0.202275976538658142 0.196344077587127686
0.267946779727935791 0.187782570719718933 0.148645907640457153
-0.322597116231918335 0.0500865280628204346 -0.0754574760794639587
0.0519111678004264832 0.143210127949714661 0.196344077587127686
0.173170402646064758 0.216243326663970947 0.0395959578454494476
-0.146048203110694885 0.288763523101806641 0.0766263008117675781
-0.29972606897354126 -0.0502956882119178772 0.0984735041856765747
-0.0555546730756759644 -0.0723088309168815613 0.196344077587127686
-0.204664155840873718 0.0148147102445363998 0.196344077587127686
-0.14352947473526001 0.294022500514984131 0.148620858788490295
0.0894697979092597961 0.314748227596282959 0.170138418674468994
-0.107693284749984741 0.206686511635780334 0.196344077587127686
0.14125099778175354 0.274891585111618042 -0.114881515502929688
0.145691260695457458 0.24148152768611908 0.0126760303974151611
0.0768846794962882996 0.277756094932556152 0.196344077587127686
-0.0333642400801181793 0.286932706832885742 -0.181978821754455566
0.263403713703155518 0.12224135547876358 0.192441642284393311
-0.0521741956472396851 0.0604669786989688873 0.196344077587127686
-0.274911582469940186 0.161921203136444092 -0.196344584226608276
0.113044753670692444 0.307079553604125977 0.125185266137123108
-0.326493978500366211 -0.0219391416758298874 -0.000209430305403657258
0.260605484247207642 0.0882077738642692566 0.187808424234390259
-0.236188203096389771 0.226422443985939026 -0.0640848651528358459
-0.26647302508354187 0.127914696931838989 -0.0596642903983592987
-0.133114874362945557 0.298918247222900391 -0.126002609729766846
-0.24137762188911438 -0.220929846167564392 0.0900656133890151978
0.144722402095794678 0.286269903182983398 0.172518834471702576
-0.22513049840927124 0.223942801356315613 0.0596982389688491821
-0.0576530732214450836 0.23542766273021698 0.196344077587127686
0.262708544731140137 0.195108860731124878 0.165392562747001648
-0.217198267579078674 0.218674272298812866 0.054261278361082077
-0.327180594205856323 -0.00577990105375647545 -0.0592773482203483582
-0.321374565362930298 0.0499079860746860504 0.0176100116223096848
0.0202304311096668243 0.279114693403244019 -0.120051674544811249
0.146340847015380859 0.240224018692970276 -0.0864913463592529297
-0.260435163974761963 0.113395698368549347 -0.156345471739768982
-0.194458305835723877 0.212631702423095703 -0.0574208274483680725
-0.0400780662894248962 0.12645934522151947 0.196344077587127686
-0.283708333969116211 -0.0568108707666397095 0.0686638802289962769
-0.262758791446685791 -0.120469436049461365 -0.0345169231295585632
-0.000168466198374517262 -0.121624648571014404 0.196344077587127686
0.255705177783966064 0.124031499028205872 0.196344077587127686
-0.137114420533180237 0.297116309404373169 0.0520304590463638306
-0.260230392217636108 -0.089694388210773468 0.188267111778259277
-0.268345743417739868 0.153503984212875366 -0.196344584226608276
-0.140290617942810059 0.270254701375961304 0.126214012503623962
-0.0732255280017852783 0.129406154155731201 0.196344077587127686
-0.239397332072257996 0.0381647758185863495 -0.196344584226608276
-0.326816767454147339 -0.0162570979446172714 -0.144393548369407654
-0.186330929398536682 -0.00907746236771345139 0.196344077587127686
0.0712128952145576477 0.319385617971420288 -0.0641254261136054993
-0.269419699907302856 -0.0698782652616500854 -0.0175647810101509094
-0.135986506938934326 0.297646015882492065 0.104744940996170044
-0.267114847898483276 -0.0730611458420753479 -0.150735065340995789
0.252584010362625122 0.208044305443763733 0.0674037709832191467
-0.075938008725643158 0.290577948093414307 0.196344077587127686
0.142411813139915466 0.249776363372802734 0.0215413980185985565
-0.28932720422744751 -0.152829334139823914 0.184158056974411011
-0.26410675048828125 -0.0783117040991783142 -0.100488580763339996
-0.264165014028549194 0.0782540515065193176 0.119784720242023468
0.0231823939830064774 0.0132391173392534256 0.196344077587127686
-0.0545776635408401489 0.0204330012202262878 0.196344077587127686
0.100708432495594025 0.311354517936706543 0.0780696794390678406
0.187418326735496521 0.170756906270980835 0.196344077587127686
-0.18915887176990509 0.0167295783758163452 -0.196344584226608276
0.140168249607086182 0.265827387571334839 -0.0984531790018081665
-0.0630574077367782593 0.321102350950241089 0.0536053590476512909
0.0652413815259933472 0.320649266242980957 -0.106081731617450714
0.0511014126241207123 0.294669032096862793 -0.196344584226608276
-0.137227833271026611 0.297049134969711304 -0.180309206247329712
-0.211268573999404907 0.216121941804885864 0.0593507848680019379
0.223991230130195618 0.0866169407963752747 0.196344077587127686
-0.0467929020524024963 0.242773205041885376 -0.196344584226608276
-0.231201723217964172 0.170227527618408203 -0.196344584226608276
-0.159735158085823059 0.223997160792350769 -0.0405206046998500824
-0.141500860452651978 0.252783238887786865 0.116673663258552551
-0.172915533185005188 -0.216299146413803101 0.0729321986436843872
-0.097177065908908844 0.304267436265945435 0.196344077587127686
-0.141677290201187134 0.252273768186569214 0.0275049358606338501
0.127018243074417114 0.277659803628921509 0.196344077587127686
-0.20919094979763031 -0.215302020311355591 0.112013421952724457
0.017033034935593605 -0.15700019896030426 0.196344077587127686
0.0560893788933753967 0.307554125785827637 -0.196344584226608276
-0.27792850136756897 -0.0225979592651128769 0.196344077587127686
-0.159366339445114136 0.131145134568214417 0.196344077587127686
-0.107055023312568665 -0.258405715227127075 0.196344077587127686
-0.142972663044929504 0.247790589928627014 0.187022209167480469
-0.271193265914916992 0.183117225766181946 0.0243449639528989792
-0.143633812665939331 0.289714723825454712 0.196344077587127686
-0.277632981538772583 0.173211485147476196 -0.11098209023475647
0.0621414519846439362 0.321267396211624146 0.115621976554393768
-0.124711357057094574 0.258089005947113037 -0.196344584226608276
-0.322053611278533936 -0.0500062592327594757 -0.0307336375117301941
-0.327092856168746948 -0.00918863061815500259 -0.160072118043899536
-0.019886162132024765 0.229223400354385376 0.196344077587127686
-0.287555575370788574 -0.156098783016204834 -0.084149189293384552
-0.0789418816566467285 -0.0616873577237129211 0.196344077587127686
-0.0632094815373420715 0.321054458618164062 -0.194809570908546448
-0.12009032815694809 0.038539499044418335 0.196344077587127686
0.0212376490235328674 0.279405504465103149 0.169482171535491943
-0.18779677152633667 -0.0965538248419761658 0.196344077587127686
0.136484816670417786 0.216367483139038086 0.196344077587127686
0.159163236618041992 0.165524467825889587 0.196344077587127686
0.1275157630443573 0.0435739308595657349 0.196344077587127686
-0.0913733169436454773 -0.0977165102958679199 0.196344077587127686
0.00933499448001384735 0.275969803333282471 0.083383314311504364
-0.0995786786079406738 0.249709859490394592 -0.196344584226608276
0.0318802222609519958 0.285722553730010986 0.124762281775474548
0.00110508990474045277 0.00356149021536111832 0.196344077587127686
0.0952036008238792419 0.0684758424758911133 0.196344077587127686
0.235921084880828857 0.226723596453666687 0.0255088619887828827
-0.327196747064590454 -0.0024157925508916378 0.113598093390464783
-0.150023356080055237 0.0485693030059337616 0.196344077587127686
-0.292308330535888672 0.00275153247639536858 -0.196344584226608276
-0.326814025640487671 0.0162189025431871414 -0.156608864665031433
-0.315367370843887329 -0.0490529313683509827 0.00550808990374207497
-0.269752830266952515 -0.185237854719161987 0.179894760251045227
-0.213190943002700806 0.216954752802848816 0.0392049588263034821
0.0539147444069385529 0.227664411067962646 0.196344077587127686
-0.242597341537475586 -0.219580605626106262 0.0985600575804710388
-0.191388636827468872 -0.111228153109550476 0.196344077587127686
-0.0889071747660636902 0.209061533212661743 -0.196344584226608276
-0.200439348816871643 0.213171601295471191 -0.0325894765555858612
-0.0895841196179389954 0.314716458320617676 -0.176197975873947144
-0.261896401643753052 -0.118346802890300751 0.112793959677219391
-0.193242505192756653 -0.212464779615402222 0.189516842365264893
0.0733242109417915344 -0.0348081588745117188 0.196344077587127686
-0.267145901918411255 -0.129012331366539001 0.036286570131778717
-0.272780507802963257 0.0658128410577774048 0.0587199032306671143
0.156340926885604858 0.227021381258964539 0.0568765364587306976
-0.268508642911911011 0.0712186098098754883 -0.0330446809530258179
-0.128901258111000061 0.18493245542049408 0.196344077587127686
0.0238290745764970779 0.24933210015296936 0.196344077587127686
-0.147736206650733948 0.237456172704696655 0.0457825139164924622
-0.309186786413192749 -0.049039013683795929 -0.0709730908274650574
0.0859879851341247559 0.178455829620361328 0.196344077587127686
-0.225191041827201843 -0.166767939925193787 0.196344077587127686
-0.216030225157737732 0.218186795711517334 0.0705518871545791626
0.163952723145484924 0.146112799644470215 0.196344077587127686
-0.276678740978240967 0.140451923012733459 0.128594979643821716
0.00742462323978543282 0.275447458028793335 0.102695636451244354
-0.260356754064559937 0.0894853472709655762 0.129333898425102234
-0.198420420289039612 0.212857499718666077 0.122891709208488464
-0.285992532968521118 -0.0554003119468688965 -0.0683927536010742188
-0.274875164031982422 0.177503257989883423 -0.0735589787364006042
-0.0199478883296251297 0.203324213624000549 0.196344077587127686
0.0767034366726875305 -0.124754376709461212 0.196344077587127686
-0.0588130578398704529 0.0322902090847492218 0.196344077587127686
-0.287511914968490601 0.156245633959770203 0.186473622918128967
-0.157028600573539734 0.0218348428606987 0.196344077587127686
-0.139417827129364014 0.0704437419772148132 0.196344077587127686
0.0399465188384056091 -0.0408087596297264099 0.196344077587127686
-0.149127215147018433 0.235457763075828552 0.0914506763219833374
-0.102998875081539154 0.0274052396416664124 0.196344077587127686
0.0502467155456542969 0.31309586763381958 -0.131529316306114197
-0.327215701341629028 -0.00138823583256453276 0.0944624394178390503
-0.311553299427032471 0.0418150722980499268 0.196344077587127686
-0.0899338573217391968 0.257301390171051025 -0.196344584226608276
0.0515610650181770325 0.0953736826777458191 0.196344077587127686
-0.269521892070770264 -0.185538113117218018 -0.00401012226939201355
-0.181884273886680603 0.129878014326095581 0.196344077587127686
-0.293172776699066162 -0.0520142503082752228 0.163029745221138
-0.308739274740219116 -0.0490059517323970795 0.0953750461339950562
-0.279859483242034912 -0.0594272278249263763 -0.0162809211760759354
-0.287994951009750366 0.155257195234298706 0.104532510042190552
0.247229218482971191 0.21436367928981781 0.0538963489234447479
0.0970058143138885498 0.312520891427993774 -0.152245849370956421
-0.223525866866111755 -0.221536308526992798 0.196344077587127686
0.0310454573482275009 0.246271446347236633 0.196344077587127686
-0.130039751529693604 0.212285593152046204 -0.196344584226608276
-0.0741733387112617493 0.318704783916473389 -0.085534803569316864
-0.0987601205706596375 -0.242377921938896179 0.196344077587127686
-0.267521589994430542 -0.0726828277111053467 0.0564399920403957367
-0.20926724374294281 0.215349435806274414 -0.162851080298423767
0.116194173693656921 0.305900126695632935 0.0869446694850921631
-0.211712628602981567 0.216270118951797485 -0.174314051866531372
0.0052599320188164711 0.275240182876586914 0.0896268337965011597
-0.266808658838272095 0.189396336674690247 0.11145927757024765
-0.285262793302536011 -0.160334452986717224 -0.0251483991742134094
0.0255462061613798141 0.0186824947595596313 0.196344077587127686
-0.270049601793289185 0.184775844216346741 0.163342386484146118
-0.243689864873886108 -0.218354165554046631 0.150697037577629089
0.118438325822353363 0.305039435625076294 0.0369173996150493622
-0.263435631990432739 0.122453935444355011 -0.0443756505846977234
-0.262849152088165283 -0.12093023955821991 -0.109104819595813751
-0.315338373184204102 -0.0190805681049823761 0.196344077587127686
0.260463684797286987 0.113027647137641907 0.180486828088760376
-0.259682208299636841 -0.0927520915865898132 0.0301543455570936203
0.249162420630455017 0.212120875716209412 0.0694473683834075928
-0.0311432387679815292 0.229467272758483887 0.196344077587127686
-0.0868989601731300354 0.315470278263092041 -0.000684179307427257299
-0.0983339250087738037 -0.0602440983057022095 0.196344077587127686
-0.198200464248657227 -0.212760955095291138 0.0274276472628116608
0.235020443797111511 0.171845689415931702 0.196344077587127686
-0.0185040440410375595 0.27833285927772522 0.0270429383963346481
-0.053766150027513504 0.322775363922119141 0.180744588375091553
-0.140179112553596497 0.267934828996658325 0.108359888195991516
0.0926046594977378845 -0.0892432183027267456 0.196344077587127686
-0.0499601848423480988 0.0556375272572040558 0.196344077587127686
-0.141962036490440369 0.251256942749023438 -0.0341709926724433899
-0.327024549245834351 0.0116150090470910072 0.0765882581472396851
-0.0985046401619911194 -0.109567344188690186 0.196344077587127686
0.0383698605000972748 0.205148234963417053 0.196344077587127686
0.246538057923316956 0.215142399072647095 0.190672516822814941
-0.0361456163227558136 0.288460224866867065 -0.196344584226608276
-0.0994798019528388977 0.311720281839370728 -0.0447744689881801605
-0.324721276760101318 -0.0338432714343070984 -0.196344584226608276
-0.259953707456588745 0.110669508576393127 0.0215849708765745163
-0.25950777530670166 0.0934361293911933899 0.0984900966286659241
-0.263006031513214111 0.156404986977577209 0.196344077587127686
-0.326278954744338989 -0.0248816683888435364 0.0715654417872428894
-0.0462530553340911865 0.302985161542892456 -0.182223871350288391
-0.064322739839553833 0.289205431938171387 0.196344077587127686
-0.242528721690177917 0.155801966786384583 0.196344077587127686
0.153958305716514587 0.0776172205805778503 0.196344077587127686
-0.2570229172706604 -0.202508270740509033 0.115608483552932739
0.028593502938747406 0.283576279878616333 0.125747442245483398
-0.218447953462600708 0.219524100422859192 -0.0424807742238044739
-0.0751886069774627686 0.318471610546112061 -0.0266519244760274887
-0.18603062629699707 -0.0448983311653137207 0.196344077587127686
0.141783222556114197 0.278036296367645264 0.189726069569587708
-0.32554212212562561 0.0328238047659397125 0.0830568447709083557
0.235217288136482239 0.227425128221511841 0.10287485271692276
-0.259154200553894043 0.0977946743369102478 -0.194555491209030151
-0.281223565340042114 -0.167304784059524536 -0.0390400849282741547
0.223554059863090515 0.204903975129127502 0.196344077587127686
0.140619128942489624 0.257939249277114868 0.0555447675287723541
-0.126670122146606445 0.0966614857316017151 -0.196344584226608276
0.257518619298934937 0.114198930561542511 0.196344077587127686
-0.277092605829238892 -0.140584811568260193 -0.00677062850445508957
-0.145340040326118469 0.287575781345367432 -0.177583977580070496
-0.033987734466791153 0.287605792284011841 -0.0171654578298330307
-0.11258368194103241 0.219176784157752991 0.196344077587127686
-0.272916585206985474 -0.180518373847007751 -0.0570308119058609009
-0.242971733212471008 0.219176799058914185 -0.0801222994923591614
-0.234892755746841431 0.227785363793373108 -0.036480981856584549
-0.110197842121124268 0.0103711662814021111 0.196344077587127686
-0.173290938138961792 0.216127470135688782 0.131774589419364929
-0.324887186288833618 0.0391393266618251801 -0.0637312978506088257
-0.266562014818191528 0.12802712619304657 -0.00996333826333284378
-0.221172749996185303 0.0430160276591777802 -0.196344584226608276
-0.175949975848197937 0.014859677292406559 0.196344077587127686
-0.259154289960861206 -0.0984024927020072937 -0.0321716777980327606
-0.264265269041061401 -0.0264570973813533783 -0.196344584226608276
-0.181039974093437195 -0.0830880552530288696 0.196344077587127686
-0.0678984671831130981 0.320105254650115967 -0.117771834135055542
0.103033728897571564 0.188882797956466675 0.196344077587127686
-0.0510000512003898621 0.00264069181866943836 0.196344077587127686
0.050127912312746048 0.312458902597427368 0.0386554300785064697
-0.270094007253646851 -0.184710904955863953 0.167857140302658081
-0.107358090579509735 -0.00264448393136262894 0.196344077587127686
-0.256565243005752563 -0.0208405479788780212 0.196344077587127686
-0.162450835108757019 -0.172259718179702759 0.196344077587127686
-0.0328074246644973755 -0.0450651794672012329 0.196344077587127686
-0.264716625213623047 0.124846942722797394 -0.143415927886962891
0.118744336068630219 0.304913818836212158 0.0205375310033559799
-0.236282110214233398 -0.226367443799972534 0.140976682305335999
-0.0344081185758113861 -0.134221643209457397 0.196344077587127686
-0.130106478929519653 0.166595637798309326 -0.196344584226608276
0.0376451946794986725 0.291121810674667358 0.0349167510867118835
0.0362965241074562073 0.289655536413192749 -0.0377358905971050262
0.255760043859481812 0.204112976789474487 0.106700167059898376
-0.0394080765545368195 0.293093174695968628 0.0613008551299571991
-0.0511379837989807129 0.136775866150856018 -0.196344584226608276
-0.272603720426559448 0.180995702743530273 -0.0817519426345825195
-0.268652379512786865 0.131451964378356934 0.0984776765108108521
-0.326003909111022949 -0.0279960371553897858 0.141540348529815674
-0.140928968787193298 0.254968553781509399 0.0275089088827371597
-0.133361846208572388 0.29882889986038208 -0.160210654139518738
-0.229116290807723999 0.0437235943973064423 -0.196344584226608276
-0.272906482219696045 -0.180528342723846436 0.154128372669219971
-0.268205493688583374 -0.18739531934261322 -0.0156500376760959625
0.154811933636665344 0.105665341019630432 0.196344077587127686
-0.000782111077569425106 0.274925261735916138 0.148245096206665039
-0.289515435695648193 0.152473613619804382 0.119893737137317657
-0.269800931215286255 -0.0693080201745033264 -0.0236072894185781479
-0.212212622165679932 -0.216429799795150757 0.153841093182563782
-0.326415270566940308 -0.0231098905205726624 0.0693959295749664307
0.0126184569671750069 0.243473902344703674 -0.196344584226608276
0.142520353198051453 0.280171513557434082 -0.079082392156124115
0.0401891395449638367 0.0614516809582710266 0.196344077587127686
0.0726393982768058777 0.319046318531036377 -0.134376302361488342
-0.128548935055732727 0.300904572010040283 -0.166327148675918579
-0.286486387252807617 -0.0551243126392364502 -0.0861664861440658569
0.141767010092735291 0.251924961805343628 0.096605740487575531
-0.132157206535339355 -0.236481279134750366 0.196344077587127686
-0.28878486156463623 0.15383891761302948 0.17550794780254364
-0.0441133975982666016 0.231057271361351013 -0.196344584226608276
-0.325899749994277954 0.0293869879096746445 -0.0357787944376468658
-0.139112889766693115 0.0311928875744342804 0.196344077587127686
0.151535868644714355 0.232208758592605591 0.188678786158561707
0.210902824997901917 0.21588955819606781 0.110332578420639038
-0.230279549956321716 0.0416096821427345276 0.196344077587127686
0.0809345096349716187 0.317058086395263672 -0.0405672937631607056
-0.29094398021697998 -0.0528840236365795135 -0.188307404518127441
-0.140559732913970947 0.258141249418258667 -0.126332074403762817
-0.210498049855232239 0.215774387121200562 0.108643330633640289
-0.208833217620849609 -0.215176671743392944 0.112589910626411438
-0.266031056642532349 -0.12712039053440094 -0.0483848191797733307
-0.0782826617360115051 0.296944469213485718 0.196344077587127686
-0.144549667835235596 0.243392512202262878 -0.188419729471206665
-0.263680219650268555 0.193765759468078613 0.0999924317002296448
-0.140438288450241089 -0.258529245853424072 0.13708089292049408
-0.152613282203674316 0.131527736783027649 0.196344077587127686
-0.260893911123275757 -0.115108676254749298 0.190651595592498779
-0.323390871286392212 0.0171704981476068497 0.196344077587127686
-0.177572280168533325 0.214682668447494507 0.051292717456817627
-0.323128342628479004 0.0501576624810695648 0.0548267066478729248
-0.108410201966762543 0.308740824460983276 -0.0805919244885444641
-0.0133615266531705856 0.276833266019821167 -0.0509622432291507721
-0.265537083148956299 0.0756305605173110962 -0.0238114632666110992
-0.214447692036628723 0.0281660128384828568 -0.196344584226608276
0.105194091796875 0.115045897662639618 0.196344077587127686
-0.0945020392537117004 0.199008703231811523 -0.196344584226608276
0.0579203255474567413 0.300186723470687866 -0.196344584226608276
0.10207512229681015 0.310900419950485229 -0.137970015406608582
-0.289399772882461548 -0.148524239659309387 0.164839416742324829
-0.163752555847167969 0.217532038688659668 0.196344077587127686
-0.301241874694824219 -0.0499152131378650665 -0.0215553659945726395
-0.103332392871379852 0.207997113466262817 -0.196344584226608276
-0.179347604513168335 -0.144138932228088379 0.196344077587127686
-0.326749235391616821 0.0174383949488401413 -0.0186278894543647766
-0.19473285973072052 0.0497959963977336884 0.196344077587127686
-0.28572005033493042 -0.055398743599653244 -0.157209247350692749
-0.245635241270065308 0.216186434030532837 0.143558353185653687
0.0105235250666737556 0.276069849729537964 0.130166292190551758
-0.121749117970466614 0.303748279809951782 -0.0193834230303764343
-0.25977027416229248 -0.109527982771396637 -0.0337285958230495453
-0.259904295206069946 -0.198780134320259094 -0.00316026899963617325
0.166091755032539368 0.21970704197883606 0.00226282491348683834
0.141966119408607483 0.294782429933547974 0.061043962836265564
-0.125718042254447937 0.298728704452514648 0.196344077587127686
-0.0497126244008541107 0.251345127820968628 -0.196344584226608276
0.18310074508190155 0.21337011456489563 0.106978669762611389
-0.271718919277191162 0.135161757469177246 0.0928732901811599731
-0.213887110352516174 0.0852945446968078613 -0.196344584226608276
-0.0256507042795419693 -0.0143536161631345749 0.196344077587127686
0.221141502261161804 0.221265643835067749 0.0697189792990684509
0.0824724063277244568 0.316649019718170166 -0.110165871679782867
0.162107527256011963 0.22203710675239563 0.0925213471055030823
-0.267538905143737793 0.188410386443138123 0.174908563494682312
0.0601145476102828979 -0.0611440949141979218 0.196344077587127686
-0.312526971101760864 -0.0489186644554138184 0.177153587341308594
-0.0514723733067512512 0.319172114133834839 -0.101508580148220062
-0.272499382495880127 -0.181150570511817932 0.0515355132520198822
0.183501467108726501 0.0392438843846321106 0.196344077587127686
-0.0536217540502548218 0.32279554009437561 -0.0253621712327003479
0.0512060634791851044 0.176811680197715759 0.196344077587127686
-0.0772329643368721008 -0.0934787020087242126 0.196344077587127686
0.100508920848369598 0.133466511964797974 0.196344077587127686
-0.259005486965179443 -0.100877493619918823 -0.0788585320115089417
-0.24037507176399231 0.222026929259300232 -0.0352436751127243042
-0.0171905513852834702 0.277945190668106079 0.00292309955693781376
-0.265302956104278564 -0.125970765948295593 0.159552723169326782
-0.0568514801561832428 0.3222026526927948 -0.167180508375167847
0.144690155982971191 0.243496447801589966 0.172045931220054626
-0.326345741748809814 0.0240585077553987503 -0.193976879119873047
-0.269543439149856567 0.0377383902668952942 -0.196344584226608276
-0.325790554285049438 -0.0305332392454147339 -0.034532446414232254
0.0874131321907043457 0.292834550142288208 0.196344077587127686
-0.049775194376707077 0.311522334814071655 0.061875615268945694
-0.219172999262809753 0.219942867755889893 0.0719409510493278503
0.173926398158073425 0.0207923669368028641 0.196344077587127686
-0.0803182423114776611 0.1323213130235672 0.196344077587127686
-0.228983983397483826 0.0817723870277404785 -0.196344584226608276
-0.236857086420059204 0.214944362640380859 -0.196344584226608276
-0.126332610845565796 0.301831513643264771 0.144246220588684082
-0.0505433343350887299 0.313716977834701538 -0.0487056374549865723
-0.0222173053771257401 0.226729780435562134 -0.196344584226608276
-0.271300703287124634 -0.134680509567260742 -0.0900683999061584473
-0.260184347629547119 0.198451578617095947 0.17374207079410553
-0.0498871169984340668 0.27484014630317688 -0.196344584226608276
-0.210135310888290405 0.215610533952713013 0.132984757423400879
-0.241435408592224121 0.0619103461503982544 0.196344077587127686
0.0443389192223548889 -0.048415791243314743 0.196344077587127686
-0.3272075355052948 -0.00349721545353531837 0.160329341888427734
0.267779916524887085 0.188059240579605103 0.157031983137130737
0.140131086111068726 0.261432945728302002 0.129357859492301941
0.217261761426925659 0.0566992200911045074 0.196344077587127686
-0.0191850084811449051 0.278685301542282104 0.174217313528060913
-0.287276715040206909 -0.0547808185219764709 -0.130161553621292114
-0.0649400502443313599 0.223730131983757019 0.196344077587127686
-0.312487751245498657 0.0488391853868961334 -0.0830563828349113464
-0.227124840021133423 0.0628721490502357483 0.196344077587127686
-0.245383724570274353 -0.216437697410583496 0.0430767834186553955
-0.271444946527481079 0.0672929883003234863 -0.0712156966328620911
-0.197805121541023254 0.159513577818870544 0.196344077587127686
-0.00755918584764003754 -0.0650229975581169128 0.196344077587127686
-0.326109439134597778 -0.0269141141325235367 -0.00401507178321480751
-0.0259127598255872726 0.201209887862205505 0.196344077587127686
0.0639435127377510071 0.320904165506362915 -0.178515151143074036
-0.0481268651783466339 -0.0606139674782752991 0.196344077587127686
-0.0477223917841911316 0.208807900547981262 0.196344077587127686
0.123151794075965881 0.233574002981185913 0.196344077587127686
-0.15095144510269165 0.232927069067955017 -0.109741345047950745
-0.141474232077598572 0.276715487241744995 -0.145879879593849182
-0.140298530459403992 0.270332932472229004 0.1527748703956604
0.0516287051141262054 0.030937662348151207 0.196344077587127686
-0.271078646183013916 -0.182857275009155273 0.196344077587127686
-0.0950269773602485657 0.313106298446655273 -0.0493436194956302643
-0.219475537538528442 -0.220169737935066223 0.0417331047356128693
-0.235579758882522583 -0.227072075009346008 0.0348798930644989014
-0.241247951984405518 0.166703760623931885 -0.196344584226608276
0.0339223556220531464 0.135023444890975952 0.196344077587127686
-0.148410946130752563 0.236427634954452515 0.157431691884994507
-0.234981343150138855 0.179175093770027161 -0.196344584226608276
-0.174522265791893005 -0.215575322508811951 0.144175991415977478
0.0484296120703220367 0.307968616485595703 -0.0611488707363605499
-0.0430892631411552429 -0.172939077019691467 0.196344077587127686
-0.260979294776916504 0.115398339927196503 -0.0120772114023566246
0.0451636612415313721 0.0579983927309513092 0.196344077587127686
0.184269562363624573 0.213242411613464355 0.00439907470718026161
0.131201252341270447 0.299757093191146851 0.0393761284649372101
0.24749504029750824 0.214068949222564697 0.105951234698295593
-0.262334227561950684 0.119628086686134338 0.116855189204216003
-0.260682106018066406 0.114187255501747131 0.126450672745704651
0.140132024884223938 0.261216580867767334 0.130413055419921875
-0.260979562997817993 0.197334691882133484 -0.0568902455270290375
-0.0611683875322341919 0.321444123983383179 -0.163367822766304016
