ply
format ascii 1.0
element vertex 722
property float x
property float y
property float z
end_header
-0.0687782764434814453 -0.315868914127349854 -0.059911239892244339
-0.119693249464035034 -0.235862821340560913 0.0265962686389684677
-0.189201295375823975 -0.243259117007255554 -0.0723201707005500793
0.0601761788129806519 -0.309419780969619751 0.00811066757887601852
-0.13804943859577179 -0.197787240147590637 -0.0723201707005500793
-0.0145230228081345558 -0.0532963089644908905 -0.0723201707005500793
-0.147841989994049072 -0.283204525709152222 -0.0636996328830718994
-0.111491978168487549 0.197929993271827698 0.0265962686389684677
-0.0715602859854698181 -0.187389567494392395 -0.0723201707005500793
-0.0535789020359516144 0.0518930405378341675 0.210298225283622742
0.00112586596515029669 -0.129694506525993347 -0.0723201707005500793
-0.113881170749664307 0.233151286840438843 0.0265962686389684677
0.182053297758102417 -0.0526233799755573273 -0.0723201707005500793
-0.322533279657363892 -0.00605096947401762009 -0.0605947896838188171
-0.0643811523914337158 0.0955145880579948425 0.139643624424934387
-0.130508318543434143 -0.0273505374789237976 0.0548581108450889587
0.0826305225491523743 0.0186844188719987869 0.198505386710166931
0.0803830400109291077 0.0267595555633306503 0.207742080092430115
-0.15639805793762207 -0.0393063575029373169 -0.0723201707005500793
0.0903569906949996948 -0.0724965482950210571 0.0617613829672336578
-0.117757625877857208 0.176962301135063171 -0.0723201707005500793
0.138805016875267029 0.0413799993693828583 0.0265962686389684677
-0.203386500477790833 0.266503185033798218 -0.0479430891573429108
0.0511258766055107117 -0.112856306135654449 -0.0723201707005500793
-0.0295230783522129059 -0.234358742833137512 -0.0723201707005500793
-0.0954963564872741699 0.191266804933547974 0.0265962686389684677
0.19757862389087677 -0.123659096658229828 0.0265962686389684677
-0.0135153252631425858 -0.11252845823764801 -0.0723201707005500793
-0.256210297346115112 0.186740726232528687 0.00627148430794477463
-0.0715380460023880005 -0.220366060733795166 -0.0723201707005500793
-0.164908140897750854 -0.0883947685360908508 -0.0723201707005500793
0.116316072642803192 0.0315934047102928162 0.0548581108450889587
0.292722702026367188 -0.145537391304969788 -0.00358503754250705242
-0.0821006670594215393 -0.0209330003708600998 0.209505259990692139
0.0684513822197914124 -0.0934798792004585266 0.1308450847864151
0.0562896504998207092 -0.0636786669492721558 -0.0723201707005500793
-0.0573679134249687195 -0.302373498678207397 0.0155712338164448738
-0.0277974829077720642 0.210604637861251831 0.0265962686389684677
-0.253070801496505737 0.1465921550989151 0.0265962686389684677
-0.151875689625740051 0.245313316583633423 0.0265962686389684677
-0.0441422164440155029 -0.224066764116287231 -0.0723201707005500793
-0.075414612889289856 -0.296027332544326782 -0.0723201707005500793
0.024969128891825676 -0.146108776330947876 0.0265962686389684677
-0.251634657382965088 0.176545813679695129 -0.0723201707005500793
-0.0918705016374588013 -0.0984566211700439453 -0.0723201707005500793
-0.0681490376591682434 -0.265422582626342773 0.0265962686389684677
0.0533457919955253601 -0.0658447146415710449 0.160045474767684937
-0.0748506113886833191 0.174429982900619507 0.0265962686389684677
-0.120439626276493073 -0.293723315000534058 0.00587964942678809166
-0.14260081946849823 0.12084989994764328 -0.0723201707005500793
-0.196230128407478333 -0.0642282366752624512 0.0265962686389684677
-0.142271906137466431 0.18881659209728241 -0.0723201707005500793
-0.18717464804649353 -0.0514291897416114807 0.0265962686389684677
-0.105268649756908417 0.0630301907658576965 -0.0723201707005500793
-0.0344436392188072205 -0.328266799449920654 -0.0531067028641700745
0.0544705092906951904 -0.306414246559143066 -0.0719443857669830322
-0.216381773352622986 -0.217156648635864258 0.0167521070688962936
-0.17702975869178772 -0.0899591743946075439 0.0265962686389684677
-0.207870051264762878 0.207341283559799194 0.0265962686389684677
0.0284010116010904312 0.180631428956985474 0.0265962686389684677
-0.179647475481033325 0.0914485380053520203 0.0265962686389684677
0.0622176676988601685 -0.263586640357971191 -0.0723201707005500793
0.0772541239857673645 0.0382410846650600433 0.139643624424934387
0.209599733352661133 -0.139463454484939575 -0.0723201707005500793
0.0621150583028793335 0.126883178949356079 0.0528987385332584381
-0.32245105504989624 -0.105054989457130432 -0.0223434437066316605
0.0274639111012220383 -0.0971044152975082397 0.139643624424934387
0.0903439521789550781 0.0254317857325077057 0.139643624424934387
-0.212205827236175537 -0.096948772668838501 -0.0723201707005500793
0.279975593090057373 -0.0971336662769317627 0.0265962686389684677
0.0535552352666854858 -0.0201351940631866455 -0.0723201707005500793
-0.305125683546066284 -0.106141127645969391 -0.0601200871169567108
0.152716740965843201 -0.138278529047966003 -0.0723201707005500793
0.0576587580144405365 0.0551931597292423248 -0.0723201707005500793
-0.0529915876686573029 -0.0551014542579650879 0.210298225283622742
-0.175141692161560059 -0.106517620384693146 -0.0723201707005500793
-0.0239993147552013397 -0.139201566576957703 0.0447304025292396545
-0.197419971227645874 -0.273308128118515015 -0.0138203734531998634
0.214677274227142334 -0.234827563166618347 0.00517128687351942062
-0.0523738227784633636 -0.103275150060653687 0.0888213589787483215
-0.111913248896598816 -0.029825158417224884 0.0629142150282859802
-0.20725637674331665 0.226737275719642639 0.0161272007972002029
-0.28908085823059082 -0.177301809191703796 -0.0419149361550807953
0.244838491082191467 -0.0692166313529014587 0.0265962686389684677
0.108626082539558411 0.0401870831847190857 0.108860678970813751
-0.0311082899570465088 -0.0852306410670280457 -0.0723201707005500793
-0.0631098374724388123 -0.0971378833055496216 0.125659719109535217
-0.241199806332588196 0.152098089456558228 -0.0723201707005500793
0.0575873628258705139 0.0621476545929908752 0.16571180522441864
0.134820431470870972 -0.298842579126358032 -0.00452019460499286652
-0.249443337321281433 -0.216557875275611877 -0.00700754672288894653
0.0626656711101531982 -0.241247385740280151 0.0265962686389684677
0.111195959150791168 -0.0324859358370304108 0.0806902125477790833
0.212802186608314514 -0.176299005746841431 0.0265962686389684677
-0.251400023698806763 -0.220851078629493713 -0.0112985605373978615
-0.210534423589706421 -0.15218806266784668 -0.0723201707005500793
0.130856454372406006 -0.0702868029475212097 0.0265962686389684677
-0.0503093115985393524 0.245497062802314758 0.0265962686389684677
-0.0266954023391008377 0.12800481915473938 -0.0723201707005500793
-0.0678502172231674194 -0.181343674659729004 0.0265962686389684677
0.12886945903301239 -0.158236339688301086 0.0265962686389684677
-0.0586218982934951782 -0.18281276524066925 -0.0723201707005500793
-0.257225602865219116 0.194545194506645203 -0.060689195990562439
-0.141176223754882812 -0.269329875707626343 0.0192284677177667618
-0.267954826354980469 -0.00526602845638990402 -0.0723201707005500793
0.209719046950340271 -0.134028181433677673 0.0265962686389684677
-0.194315299391746521 0.068325527012348175 0.0265962686389684677
0.061104167252779007 -0.333573192358016968 -0.0305268857628107071
-0.0734273418784141541 -0.305621802806854248 -0.0688645094633102417
-0.0337311550974845886 0.105947926640510559 -0.0723201707005500793
0.0267129931598901749 0.114174522459506989 0.0548581108450889587
-0.273726195096969604 0.0429104380309581757 0.0265962686389684677
-0.0852216258645057678 0.0555701255798339844 0.139643624424934387
-0.202677607536315918 -0.128745704889297485 0.0265962686389684677
0.183284416794776917 0.0397027432918548584 0.0265962686389684677
-0.0603932291269302368 -0.288584530353546143 0.0265962686389684677
-0.183828964829444885 0.198914229869842529 0.0265962686389684677
0.122803330421447754 0.0977886244654655457 0.0265962686389684677
-0.148854121565818787 0.26285889744758606 0.0212475880980491638
-0.263885289430618286 -0.156537845730781555 0.0165149793028831482
-0.211378142237663269 0.121458955109119415 -0.0723201707005500793
-0.295214802026748657 0.067801356315612793 0.0204307381063699722
-0.219007804989814758 0.154398694634437561 0.0265962686389684677
-0.0764545798301696777 0.0325900427997112274 0.210298225283622742
-0.0146477343514561653 -0.266438305377960205 0.0265962686389684677
-0.0303040668368339539 0.120315268635749817 0.0548581108450889587
0.149696677923202515 -0.27124825119972229 0.0135141713544726372
0.0799036696553230286 -0.0787511169910430908 -0.0723201707005500793
-0.243281066417694092 0.229627802968025208 -0.0486508980393409729
-0.084020368754863739 0.142637893557548523 -0.0723201707005500793
-0.163103654980659485 -0.24809187650680542 0.0264326892793178558
-0.208571285009384155 0.0563037954270839691 -0.0723201707005500793
0.0253747943788766861 -0.0808415114879608154 0.210074484348297119
-0.302438974380493164 0.0872342288494110107 0.00854661501944065094
0.0727944374084472656 -0.045697677880525589 0.139643624424934387
0.0820993110537528992 0.00195856066420674324 0.210298225283622742
-0.050632670521736145 -0.321289539337158203 -0.00191765034105628729
0.105569027364253998 -0.0477361418306827545 0.135183334350585938
-0.203159794211387634 0.140176907181739807 0.0265962686389684677
-0.173622205853462219 -0.0759984105825424194 -0.0723201707005500793
0.0348863191902637482 -0.0624992139637470245 -0.0723201707005500793
-0.13975583016872406 0.166300982236862183 0.0265962686389684677
-0.295905351638793945 -0.0560030005872249603 0.0221635773777961731
-0.0233920440077781677 -0.139316871762275696 0.0440132208168506622
0.158703535795211792 -0.213130638003349304 -0.0723201707005500793
-0.184694185853004456 -0.253864377737045288 0.00939630530774593353
-0.327860325574874878 0.0273705143481492996 -0.0541843287646770477
0.00760006159543991089 -0.207350566983222961 -0.0723201707005500793
-0.167139038443565369 -0.280313611030578613 -0.0030330335721373558
0.170207202434539795 -0.117584697902202606 -0.0723201707005500793
-0.0548329241573810577 -0.133992373943328857 -0.0723201707005500793
-0.154678940773010254 -0.192203700542449951 0.0265962686389684677
-0.149514362215995789 -0.288031995296478271 -0.0012047960190102458
-0.151614755392074585 -0.229067087173461914 0.0265962686389684677
-0.000219810986891388893 -0.186530217528343201 -0.0723201707005500793
-0.119872316718101501 -0.220761165022850037 0.0265962686389684677
0.107932597398757935 0.0817929729819297791 0.0548581108450889587
-0.0482602454721927643 -0.212575018405914307 -0.0723201707005500793
0.109152905642986298 0.0388514585793018341 0.0827106386423110962
-0.0707759782671928406 0.0466315187513828278 0.186974182724952698
0.220401167869567871 -0.0577890239655971527 0.0265962686389684677
-0.12232951819896698 -0.106405794620513916 -0.0723201707005500793
-0.180698618292808533 0.201149165630340576 -0.0723201707005500793
-0.17196992039680481 -0.156635105609893799 -0.0723201707005500793
0.216884717345237732 -0.0402948074042797089 0.0265962686389684677
-0.00571555923670530319 0.0241575352847576141 0.210298225283622742
0.05316929891705513 0.0844072550535202026 0.139643624424934387
-0.212121188640594482 -0.175179928541183472 -0.0723201707005500793
-0.199724882841110229 0.217839732766151428 -0.0723201707005500793
-0.296115666627883911 -0.0222959704697132111 0.0263607706874608994
-0.0267899036407470703 -0.138725787401199341 0.0534014962613582611
-0.087855905294418335 0.203476428985595703 0.0265962686389684677
-0.334273070096969604 -0.0338601246476173401 -0.0471965223550796509
0.109606899321079254 -0.176377430558204651 0.0265962686389684677
-0.173522040247917175 -0.0443594232201576233 -0.0723201707005500793
-0.208159327507019043 -0.122468218207359314 -0.0723201707005500793
0.120054751634597778 -0.251903802156448364 0.0265962686389684677
-0.129935920238494873 0.0269789900630712509 -0.0723201707005500793
-0.291874736547470093 0.0441968925297260284 -0.0723201707005500793
-0.184384375810623169 0.0555508360266685486 0.0265962686389684677
0.206458643078804016 -0.163444221019744873 -0.0723201707005500793
0.0333041585981845856 -0.137267410755157471 0.0455189310014247894
0.0700815171003341675 -0.108656242489814758 -0.0723201707005500793
-0.0400849245488643646 -0.249030768871307373 0.0265962686389684677
-0.0387961678206920624 0.0753739848732948303 0.191098108887672424
0.29507821798324585 -0.167111948132514954 -0.0182279758155345917
0.101484380662441254 -0.119638070464134216 0.0265962686389684677
0.262660861015319824 -0.050832793116569519 0.0265962686389684677
-0.187701284885406494 0.068117290735244751 0.0265962686389684677
-0.247753888368606567 0.0686154961585998535 -0.0723201707005500793
0.0402719825506210327 0.0907811522483825684 0.139643624424934387
-0.148251906037330627 0.158275872468948364 0.0265962686389684677
-0.111030168831348419 0.0330484360456466675 0.0631777271628379822
-0.0479187555611133575 -0.201581478118896484 0.0265962686389684677
-0.00792401377111673355 0.0482348538935184479 0.210298225283622742
-0.0223602298647165298 -0.21575009822845459 0.0265962686389684677
-0.112922653555870056 0.0683026537299156189 0.0548581108450889587
-0.0165867991745471954 -0.114664815366268158 0.0618086904287338257
0.0120787713676691055 -0.268808186054229736 -0.0723201707005500793
-0.313467085361480713 0.0115761850029230118 0.00965168513357639313
0.158420011401176453 -0.142727792263031006 -0.0723201707005500793
-0.153476759791374207 -0.226920217275619507 -0.0723201707005500793
0.114437505602836609 0.0179604142904281616 0.0980561003088951111
0.084756895899772644 -0.0010073761222884059 0.152108281850814819
0.229553312063217163 -0.0585934258997440338 0.0265962686389684677
-0.106695085763931274 0.0450691394507884979 0.123607955873012543
0.0312024615705013275 -0.278418868780136108 -0.0723201707005500793
0.292591005563735962 -0.171472713351249695 -0.0276939589530229568
0.026711462065577507 -0.224316984415054321 -0.0723201707005500793
-0.00178583490196615458 0.101782135665416718 -0.0723201707005500793
0.167205184698104858 -0.0632943063974380493 0.0265962686389684677
-0.247439876198768616 0.198972046375274658 0.00582200940698385239
0.21942603588104248 -0.241250500082969666 -0.0570652596652507782
-0.0720958709716796875 0.125743761658668518 -0.0723201707005500793
-0.178911879658699036 -0.0731585025787353516 0.0265962686389684677
0.0621081404387950897 -0.247909754514694214 -0.0723201707005500793
-0.113702587783336639 0.0218646693974733353 0.107798390090465546
-0.228129491209983826 0.242505818605422974 -0.00960607174783945084
0.0976696759462356567 -0.182952478528022766 -0.0723201707005500793
0.118542298674583435 -0.221406921744346619 0.0265962686389684677
-0.246444344520568848 0.16745150089263916 0.0253722406923770905
0.0645580664277076721 0.00601119594648480415 0.210298225283622742
0.0980100110173225403 -0.0456920266151428223 0.139643624424934387
-0.113509759306907654 0.0840976685285568237 0.036249309778213501
-0.141076967120170593 0.173256769776344299 0.0265962686389684677
0.194870486855506897 -0.240266561508178711 0.0139834126457571983
-0.292915761470794678 0.0480502508580684662 0.0264782439917325974
-0.21488209068775177 0.00446622632443904877 0.0265962686389684677
-0.125144347548484802 0.241095378994941711 -0.0723201707005500793
-0.190160319209098816 -0.244637921452522278 0.0134822884574532509
-0.0103643201291561127 -0.0840846672654151917 0.154754072427749634
-0.0425898358225822449 -0.13993583619594574 -0.0723201707005500793
-0.0582728609442710876 -0.100119039416313171 0.121260523796081543
0.125875890254974365 -0.257593363523483276 0.0265962686389684677
0.169418483972549438 -0.159336388111114502 -0.0723201707005500793
-0.236854702234268188 -0.205700889229774475 -0.0694742500782012939
0.16265280544757843 -0.263989299535751343 -0.0723201707005500793
-0.0550025142729282379 -0.29918631911277771 -0.0723201707005500793
-0.132789909839630127 0.0481523312628269196 0.0354694724082946777
-0.337056159973144531 0.01857772096991539 -0.0456250123679637909
-0.322691679000854492 -0.0491658933460712433 -0.00308661838062107563
0.0592057518661022186 -0.152751252055168152 0.0265962686389684677
0.0805209130048751831 -0.0840696319937705994 -0.0723201707005500793
-0.168978244066238403 -0.257293015718460083 0.0155070601031184196
0.169729605317115784 -0.112382464110851288 -0.0723201707005500793
0.0627028718590736389 0.126549571752548218 0.0347264409065246582
0.0344835557043552399 -0.113027594983577728 -0.0723201707005500793
-0.131677314639091492 -0.214346960186958313 -0.0723201707005500793
0.124141417443752289 -0.244630396366119385 0.0265962686389684677
-0.104127198457717896 0.0507379472255706787 0.0953128114342689514
-0.25969308614730835 -0.000563774607144296169 -0.0723201707005500793
-0.29329979419708252 0.0754655078053474426 -0.0723201707005500793
-0.167229950428009033 -0.230229109525680542 0.0265962686389684677
-0.159117221832275391 -0.216036543250083923 -0.0723201707005500793
-0.0573852509260177612 0.0907340794801712036 -0.0723201707005500793
0.110239475965499878 -0.0356179997324943542 0.0799570903182029724
-0.178238600492477417 0.0785745382308959961 -0.0723201707005500793
0.137177005410194397 0.0336871407926082611 0.0449716001749038696
0.0311499834060668945 0.111594997346401215 0.078235723078250885
0.0237367618829011917 -0.307619869709014893 0.0147942369803786278
0.0509063638746738434 -0.288078278303146362 0.0265962686389684677
-0.172600612044334412 0.158508241176605225 -0.0723201707005500793
-0.157785415649414062 0.164779409766197205 0.0265962686389684677
0.0604253560304641724 -0.157942280173301697 0.0265962686389684677
-0.140466004610061646 -0.0825232192873954773 -0.0723201707005500793
-0.0729909911751747131 -0.321615070104598999 -0.0533823557198047638
-0.082769148051738739 0.114496752619743347 0.0276496298611164093
-0.263682514429092407 -0.0857928842306137085 0.0265962686389684677
-0.270480751991271973 -0.161698073148727417 0.00819250382483005524
-0.26886981725692749 0.154928073287010193 0.0130250267684459686
-0.202765539288520813 0.0713902190327644348 -0.0723201707005500793
0.0653853937983512878 -0.0558881498873233795 -0.0723201707005500793
-0.0247648730874061584 0.11316719651222229 0.0846480801701545715
0.0828063786029815674 0.0110813872888684273 -0.0723201707005500793
0.0577271990478038788 0.100231505930423737 0.139643624424934387
-0.0104329660534858704 -0.0834516361355781555 -0.0723201707005500793
-0.235479563474655151 -0.132390782237052917 -0.0723201707005500793
0.20965653657913208 -0.128444850444793701 0.0265962686389684677
0.0610527992248535156 -0.191858470439910889 -0.0723201707005500793
0.0356356166303157806 -0.110231928527355194 0.119172342121601105
0.123982742428779602 -0.0920924395322799683 -0.0723201707005500793
0.246069133281707764 -0.0647009164094924927 0.0265962686389684677
0.0969484001398086548 -0.0634097307920455933 0.0757406577467918396
0.104417473077774048 -0.155735880136489868 0.0265962686389684677
0.074418678879737854 -0.231829553842544556 0.0265962686389684677
-0.188239544630050659 -0.0428849942982196808 -0.0723201707005500793
-0.315870136022567749 0.102132543921470642 -0.00864168908447027206
-0.19576689600944519 0.13787505030632019 -0.0723201707005500793
-0.176870435476303101 -0.148680299520492554 0.0265962686389684677
-0.00914860609918832779 0.10868101567029953 -0.0723201707005500793
-0.0286525022238492966 -0.0536078065633773804 0.210298225283622742
-0.0767302662134170532 -0.0920155569911003113 -0.0723201707005500793
-0.0349098443984985352 -0.229396522045135498 0.0265962686389684677
0.0534459836781024933 0.102741904556751251 0.138125807046890259
-0.135812640190124512 -0.207596719264984131 0.0265962686389684677
-0.0793491899967193604 -0.139466479420661926 -0.0723201707005500793
0.115155428647994995 -0.0124860610812902451 0.0990537479519844055
0.0750109627842903137 -0.180389493703842163 0.0265962686389684677
-0.097463659942150116 -0.0820127278566360474 -0.0723201707005500793
-0.0973398312926292419 -0.235663220286369324 -0.0723201707005500793
-0.140385881066322327 -0.0158104542642831802 0.0396661721169948578
-0.0391655601561069489 0.108389459550380707 -0.0723201707005500793
-0.165796190500259399 -0.2958221435546875 -0.0254469327628612518
-0.195471212267875671 0.148579567670822144 0.0265962686389684677
0.0265045687556266785 0.206190884113311768 0.0265962686389684677
-0.0350231826305389404 -0.0442665033042430878 -0.0723201707005500793
0.0107068940997123718 -0.282828181982040405 0.0265962686389684677
0.0128416307270526886 0.0997102335095405579 0.139643624424934387
-0.0694652348756790161 -0.136878147721290588 -0.0723201707005500793
0.101954072713851929 -0.0605986081063747406 -0.0723201707005500793
-0.224992573261260986 0.143432825803756714 0.0265962686389684677
-0.135488808155059814 0.114889077842235565 -0.0723201707005500793
-0.200400933623313904 0.0821090042591094971 0.0265962686389684677
-0.0159477517008781433 -0.176890164613723755 0.0265962686389684677
0.277237623929977417 -0.190398752689361572 -0.0468556694686412811
-0.164798274636268616 -0.21123117208480835 -0.0723201707005500793
-0.289449989795684814 0.043405238538980484 -0.0723201707005500793
-0.119440905749797821 -0.283028870820999146 0.0161370933055877686
-0.179010555148124695 -0.257246881723403931 0.00992578640580177307
-0.0244297794997692108 -0.00887722522020339966 -0.0723201707005500793
-0.0309575274586677551 0.171157434582710266 0.0265962686389684677
-0.105190962553024292 -0.0485483892261981964 0.113858453929424286
-0.0579315684735774994 0.0524771884083747864 0.210298225283622742
-0.240573376417160034 0.111035086214542389 -0.0723201707005500793
-0.118912167847156525 -0.0377553999423980713 -0.0723201707005500793
0.139404013752937317 -0.110301010310649872 -0.0723201707005500793
-0.0465487390756607056 -0.271133393049240112 -0.0723201707005500793
-0.110234901309013367 0.172420203685760498 0.0265962686389684677
-0.248951554298400879 0.0287191960960626602 0.0265962686389684677
-0.0246447343379259109 -0.034012719988822937 0.210298225283622742
-0.209176450967788696 -0.159692496061325073 -0.0723201707005500793
-0.261959046125411987 0.134825080633163452 -0.0723201707005500793
-0.30387955904006958 0.150527924299240112 -0.0404766425490379333
-0.0907625257968902588 0.108380034565925598 -0.0723201707005500793
0.0802170261740684509 0.104036279022693634 0.0548581108450889587
0.0526617430150508881 -0.103161327540874481 0.128326445817947388
0.018886178731918335 -0.15271449089050293 -0.0723201707005500793
-0.0517368689179420471 -0.175283685326576233 0.0265962686389684677
-0.31575310230255127 0.11333388090133667 -0.0121370628476142883
-0.199671521782875061 0.254332691431045532 -0.0598452016711235046
-0.082185894250869751 0.275069147348403931 0.0265962686389684677
-0.127746850252151489 -0.165689468383789062 0.0265962686389684677
0.0537803620100021362 -0.255573928356170654 -0.0723201707005500793
0.0681203156709671021 0.0937292501330375671 0.0765026882290840149
-0.0417018048465251923 -0.0526159629225730896 -0.0723201707005500793
-0.229017704725265503 -0.0138725303113460541 0.0265962686389684677
-0.0547952279448509216 0.0646143257617950439 0.180142924189567566
-0.100644983351230621 -0.0573004446923732758 0.0955262929201126099
-0.101793579757213593 -0.0488986372947692871 0.139643624424934387
0.148335009813308716 -0.0831305235624313354 -0.0723201707005500793
-0.130388170480728149 -0.0549850836396217346 -0.0723201707005500793
-0.285389065742492676 -0.0590586736798286438 0.0265962686389684677
-0.105074241757392883 -0.0487764850258827209 0.118840605020523071
0.0456498600542545319 -0.315180033445358276 -0.0647189170122146606
-0.115821659564971924 0.000142872391734272242 0.104818671941757202
-0.127847760915756226 0.169191479682922363 0.0265962686389684677
-0.165562078356742859 0.235536351799964905 0.0265962686389684677
-0.333187311887741089 -0.0113619547337293625 -0.0497971922159194946
0.0330719426274299622 0.0779743045568466187 0.166771307587623596
-0.0250645913183689117 -0.326274067163467407 -0.00390136055648326874
0.00824264530092477798 -0.30172315239906311 -0.0723201707005500793
-0.213774129748344421 -0.165281862020492554 -0.0723201707005500793
0.146193191409111023 -0.253636330366134644 -0.0723201707005500793
0.0424573197960853577 0.0344359725713729858 0.210298225283622742
-0.155749425292015076 0.13649362325668335 0.0265962686389684677
-0.234103530645370483 0.167416870594024658 -0.0723201707005500793
-0.103314302861690521 -0.217120647430419922 -0.0723201707005500793
-0.219938158988952637 0.0432542599737644196 0.0265962686389684677
0.115781709551811218 -0.0323219858109951019 0.0548581108450889587
0.0199899431318044662 0.146119385957717896 0.0265962686389684677
-0.0344601534307003021 0.0438193753361701965 0.210298225283622742
-0.235414817929267883 0.244078844785690308 -0.0158535130321979523
-0.27897915244102478 -0.10206911712884903 0.0262730605900287628
-0.248047530651092529 0.0981555655598640442 0.0265962686389684677
-0.240322843194007874 -0.0495028272271156311 -0.0723201707005500793
0.0624786019325256348 0.045180782675743103 0.210298225283622742
0.137076511979103088 0.0625568032264709473 0.0265962686389684677
-0.317778140306472778 0.118408694863319397 -0.0330305211246013641
-0.0409427285194396973 -0.335469156503677368 -0.0146411266177892685
0.0655678659677505493 0.00595294870436191559 0.210298225283622742
0.10729699581861496 -0.0435736924409866333 0.06813783198595047
0.171542853116989136 -0.195884391665458679 -0.0723201707005500793
0.0357557907700538635 -0.110143706202507019 0.0860724896192550659
0.0344398654997348785 -0.312088757753372192 -0.0691973268985748291
-0.0880665481090545654 0.0590881220996379852 -0.0723201707005500793
0.0334177911281585693 -0.189927756786346436 -0.0723201707005500793
-0.0120717566460371017 -0.109427504241466522 -0.0723201707005500793
-0.0404051356017589569 0.126419186592102051 -0.0723201707005500793
0.255614370107650757 -0.036641731858253479 0.0265962686389684677
0.0543429665267467499 -0.137834206223487854 -0.0723201707005500793
0.196006506681442261 -0.185511186718940735 -0.0723201707005500793
-0.240711048245429993 0.176141202449798584 0.0250445455312728882
-0.0599375292658805847 -0.118417233228683472 0.0548581108450889587
-0.274064719676971436 0.199721455574035645 -0.0187689904123544693
-0.0742683038115501404 -0.0406425110995769501 0.192425429821014404
0.0510323569178581238 0.0793770924210548401 0.139643624424934387
0.106216557323932648 0.0989888161420822144 0.0265962686389684677
-0.0837826728820800781 -0.0127846850082278252 0.187441140413284302
0.132093548774719238 -0.277914375066757202 0.0156350266188383102
-0.0377931371331214905 -0.230782225728034973 0.0265962686389684677
-0.17535872757434845 0.231854528188705444 0.0265962686389684677
-0.123726293444633484 0.104100942611694336 -0.0723201707005500793
0.00138236733619123697 -0.0846384391188621521 0.157145693898200989
-0.144698083400726318 -0.27596554160118103 0.011732662096619606
0.213791683316230774 -0.189343556761741638 0.0265962686389684677
-0.0810278728604316711 -0.0466689616441726685 -0.0723201707005500793
-0.00165728596039116383 0.197172760963439941 0.0265962686389684677
0.0978043675422668457 0.0619817934930324554 0.0891970545053482056
-0.0741523429751396179 -0.13226376473903656 0.0265962686389684677
0.0297166798263788223 0.0793304666876792908 0.194695740938186646
-0.131259188055992126 0.0881572812795639038 0.0265962686389684677
0.132411018013954163 -0.137380585074424744 -0.0723201707005500793
-0.100501209497451782 0.0076580531895160675 0.139643624424934387
-0.337020933628082275 0.0376152582466602325 -0.0241753477603197098
0.00361769762821495533 0.107913300395011902 -0.0723201707005500793
0.0891205295920372009 -0.273136883974075317 0.0265962686389684677
-0.0943131521344184875 -0.105135910212993622 0.0429813116788864136
-0.20969054102897644 0.230567395687103271 0.0116710010915994644
-0.0334302373230457306 -0.137969791889190674 0.0265962686389684677
-0.0356268212199211121 -0.173792541027069092 -0.0723201707005500793
0.222693875432014465 -0.126744255423545837 0.0265962686389684677
-0.0962009057402610779 -0.0342692248523235321 0.139643624424934387
-0.27714124321937561 0.175280570983886719 -0.0552731864154338837
0.135175824165344238 -0.0410342589020729065 0.0292143970727920532
-0.133620813488960266 -0.0672509148716926575 0.0265962686389684677
-0.136239245533943176 0.20215354859828949 0.0265962686389684677
-0.0387430526316165924 0.109123751521110535 0.085451856255531311
-0.0672957450151443481 0.0515129081904888153 0.153130799531936646
-0.293451309204101562 -0.0917809009552001953 0.0158728454262018204
-0.0050187637098133564 -0.233699128031730652 -0.0723201707005500793
-0.159349307417869568 0.231427520513534546 -0.0723201707005500793
0.176129475235939026 -0.166307136416435242 -0.0723201707005500793
-0.165650531649589539 -0.106826759874820709 -0.0723201707005500793
-0.0364042855799198151 -0.171990871429443359 -0.0723201707005500793
-0.20853656530380249 0.0261676423251628876 -0.0723201707005500793
0.0806026086211204529 -0.0657880604267120361 0.139643624424934387
-0.0821727439761161804 0.217783048748970032 0.0265962686389684677
0.19758981466293335 -0.202273234724998474 -0.0723201707005500793
-0.0722501426935195923 -0.30270087718963623 0.0121269915252923965
-0.290913760662078857 -0.172562539577484131 -0.0149209359660744667
-0.211957618594169617 0.103594563901424408 -0.0723201707005500793
-0.171991676092147827 -0.00345740281045436859 0.0265962686389684677
0.091574549674987793 -0.28976479172706604 0.019426664337515831
-0.297139286994934082 -0.15172286331653595 -0.0103161158040165901
-0.248231098055839539 0.0828196480870246887 0.0265962686389684677
-0.0408506989479064941 -0.115070544183254242 -0.0723201707005500793
0.231919318437576294 -0.216333463788032532 -0.0660422146320343018
-0.0237602591514587402 -0.0812660157680511475 0.20170225203037262
-0.0576405897736549377 -0.239129111170768738 -0.0723201707005500793
0.0824781879782676697 0.0990043506026268005 0.0548581108450889587
-0.164207011461257935 0.21481148898601532 0.0265962686389684677
0.258376866579055786 -0.208742678165435791 -0.0510046444833278656
0.116031475365161896 -0.00981495808809995651 0.0548581108450889587
-0.183599814772605896 0.283594429492950439 -0.0144959278404712677
-0.110956922173500061 -0.12221372127532959 0.0265962686389684677
0.107960253953933716 -0.0640384480357170105 -0.0723201707005500793
-0.0110731609165668488 -0.115319319069385529 0.0585679300129413605
-0.137296319007873535 0.0331346206367015839 0.0449820235371589661
0.00682304752990603447 -0.0928007066249847412 0.139643624424934387
-0.222486332058906555 0.255934149026870728 -0.0393632054328918457
-0.082586921751499176 -0.272141724824905396 -0.0723201707005500793
-0.0930622145533561707 -0.0689390897750854492 0.0821865350008010864
-0.0686551257967948914 0.0345883183181285858 -0.0723201707005500793
-0.219169557094573975 0.200442060828208923 -0.0723201707005500793
-0.127884522080421448 0.0448755398392677307 -0.0723201707005500793
-0.025455886498093605 0.144464120268821716 -0.0723201707005500793
-0.103165760636329651 0.0527309216558933258 0.127854093909263611
0.173043102025985718 -0.257825613021850586 -0.0723201707005500793
-0.0753845945000648499 -0.313716232776641846 0.000680245342664420605
-0.296856611967086792 0.0526657775044441223 0.0218279678374528885
0.130557209253311157 -0.0539966225624084473 0.0403513945639133453
-0.0281540770083665848 -0.0536373220384120941 -0.0723201707005500793
-0.0204393882304430008 -0.240915790200233459 -0.0723201707005500793
-0.255968064069747925 0.145931020379066467 -0.0723201707005500793
-0.204578429460525513 -0.114968858659267426 -0.0723201707005500793
0.0720201879739761353 -0.145329982042312622 -0.0723201707005500793
-0.10397019237279892 -0.0276158209890127182 0.139643624424934387
0.182186827063560486 -0.227477967739105225 0.0265962686389684677
-0.0632643178105354309 -0.0645305737853050232 -0.0723201707005500793
-0.0412847213447093964 0.0652076229453086853 0.210298225283622742
-0.11663489043712616 0.105203106999397278 -0.0723201707005500793
-0.161556705832481384 0.0782542005181312561 -0.0723201707005500793
-0.0458905436098575592 0.0711784735321998596 0.16402454674243927
-0.13792891800403595 -0.026226455345749855 0.0548581108450889587
0.0436073504388332367 0.107299193739891052 0.0771822929382324219
-0.21555347740650177 0.137370839715003967 0.0265962686389684677
0.144043996930122375 -0.183496296405792236 -0.0723201707005500793
0.125238001346588135 -0.243660807609558105 0.0265962686389684677
0.0569287762045860291 -0.10089072585105896 0.119787611067295074
-0.216351673007011414 0.0182620063424110413 -0.0723201707005500793
-0.144805565476417542 -0.190910428762435913 0.0265962686389684677
-0.323104143142700195 -0.102878376841545105 -0.0157779678702354431
0.0340199097990989685 -0.315185904502868652 0.00632134592160582542
-0.0316450707614421844 0.00457378290593624115 0.210298225283622742
-0.0377533845603466034 -0.136124074459075928 0.0376253053545951843
-0.0520261228084564209 -0.0694044902920722961 -0.0723201707005500793
-0.230309024453163147 -0.113663136959075928 -0.0723201707005500793
0.033603329211473465 -0.0354516617953777313 0.210298225283622742
-0.0418320633471012115 0.1086263507604599 0.0548581108450889587
-0.174223080277442932 0.0547974444925785065 0.0265962686389684677
0.0221149306744337082 -0.012526392936706543 0.210298225283622742
0.177709653973579407 -0.179311290383338928 0.0265962686389684677
0.264663904905319214 -0.167584702372550964 -0.0699135363101959229
-0.320886135101318359 -0.0518393181264400482 -0.0581429004669189453
0.0411536842584609985 0.108215801417827606 0.104669004678726196
0.269117891788482666 -0.0626494958996772766 0.0265962686389684677
-0.0782903879880905151 0.167296439409255981 0.0265962686389684677
-0.240990817546844482 0.0823565572500228882 -0.0723201707005500793
-0.166222319006919861 0.023330124095082283 -0.0723201707005500793
-0.279421597719192505 -0.186305820941925049 -0.0125049995258450508
0.0556687153875827789 -0.0386462993919849396 -0.0723201707005500793
-0.0426339060068130493 -0.134706094861030579 0.0356913357973098755
-0.337267518043518066 -0.0353971831500530243 -0.0342957377433776855
0.204450637102127075 0.00787892658263444901 0.0265962686389684677
-0.150865852832794189 0.0849087759852409363 -0.0723201707005500793
-0.0842377394437789917 -0.00877842865884304047 0.171526193618774414
0.114984191954135895 -0.089608311653137207 0.0265962686389684677
-0.269589871168136597 0.124266676604747772 0.0264566503465175629
0.115804843604564667 0.00192499975673854351 0.0675763487815856934
0.0372431240975856781 0.0294744540005922318 0.210298225283622742
0.0319627374410629272 0.00659098010510206223 0.210298225283622742
-0.292412102222442627 0.0505410581827163696 0.0265579298138618469
-0.208426028490066528 -0.216826260089874268 -0.0723201707005500793
-0.193632796406745911 0.0320578292012214661 -0.0723201707005500793
0.19459262490272522 -0.12911967933177948 -0.0723201707005500793
0.0109729720279574394 -0.0344929955899715424 -0.0723201707005500793
-0.224043354392051697 0.171936452388763428 -0.0723201707005500793
-0.180485993623733521 0.0034097044263035059 0.0265962686389684677
-0.170926034450531006 0.284866213798522949 -0.00889241322875022888
0.193260520696640015 -0.198941871523857117 -0.0723201707005500793
0.0214598290622234344 0.0798906385898590088 0.210298225283622742
-0.0589240081608295441 -0.0120211867615580559 0.210298225283622742
-0.213842049241065979 -0.173340678215026855 0.0265962686389684677
0.25292050838470459 -0.168259963393211365 0.0195610485970973969
-0.0865995064377784729 0.289364099502563477 0.0212845634669065475
-0.0145416604354977608 -0.0834754928946495056 0.159360900521278381
-0.111573278903961182 -0.16752314567565918 -0.0723201707005500793
0.0707003101706504822 -0.24157366156578064 0.0265962686389684677
0.112870387732982635 0.0288963448256254196 -0.0723201707005500793
-0.0825094133615493774 0.159707680344581604 -0.0723201707005500793
-0.0752310901880264282 -0.0424100346863269806 0.139643624424934387
-0.114267848432064056 0.154488086700439453 0.0265962686389684677
0.217569991946220398 -0.148092478513717651 -0.0723201707005500793
0.242732018232345581 -0.13844144344329834 -0.0723201707005500793
-0.199156716465950012 -0.110972106456756592 0.0265962686389684677
0.0422368459403514862 -0.298822879791259766 0.0215480681508779526
0.0283483080565929413 0.11232980340719223 0.114379644393920898
0.115170523524284363 -0.215344354510307312 0.0265962686389684677
0.0979490652680397034 -0.0911537408828735352 0.0548581108450889587
0.0233015045523643494 -0.300244808197021484 -0.0723201707005500793
0.0614387281239032745 -0.0283559076488018036 -0.0723201707005500793
-0.0785905271768569946 -0.186979696154594421 0.0265962686389684677
0.0913314670324325562 -0.107741281390190125 0.0317431502044200897
-0.0410107821226119995 0.0684863626956939697 -0.0723201707005500793
-0.0225453414022922516 0.224367231130599976 0.0265962686389684677
-0.0628481209278106689 -0.0973180085420608521 0.127939522266387939
-0.0600818358361721039 0.0562174580991268158 0.210298225283622742
-0.0740845948457717896 -0.0999810695648193359 -0.0723201707005500793
0.265911608934402466 -0.132422670722007751 0.0262554623186588287
-0.149827510118484497 -0.0954535827040672302 0.0265962686389684677
0.109417714178562164 -0.038006272166967392 0.0820428133010864258
-0.0172928180545568466 0.0726447105407714844 0.210298225283622742
0.0761379450559616089 -0.103508606553077698 0.0548581108450889587
-0.0916385799646377563 0.122660845518112183 -0.0723201707005500793
0.252690762281417847 -0.184602797031402588 -0.0702393800020217896
0.0844710171222686768 -0.00727543747052550316 0.175457000732421875
-0.0169210173189640045 -0.217693567276000977 -0.0723201707005500793
-0.000674028473440557718 -0.0596901103854179382 0.210298225283622742
0.0601975880563259125 -0.283937215805053711 0.0265962686389684677
-0.290362536907196045 0.00884003564715385437 -0.0723201707005500793
0.0127464886754751205 -0.203069180250167847 -0.0723201707005500793
-0.0693176016211509705 0.111765861511230469 -0.0723201707005500793
-0.320738881826400757 -0.0810305848717689514 -0.0523791797459125519
0.0224511027336120605 -0.205796092748641968 0.0265962686389684677
-0.278223186731338501 0.178954139351844788 -0.00750356074422597885
0.0114346025511622429 -0.0261739734560251236 -0.0723201707005500793
0.107268378138542175 0.0436185635626316071 0.0646569058299064636
-0.0394361019134521484 -0.136526644229888916 -0.0723201707005500793
-0.2365550696849823 -0.130902856588363647 -0.0723201707005500793
-0.111503869295120239 0.223220989108085632 0.0265962686389684677
-0.289020717144012451 0.0159243550151586533 0.0265962686389684677
-0.257553756237030029 0.160987004637718201 -0.0723201707005500793
-0.157547637820243835 -0.162145569920539856 0.0265962686389684677
0.0462467782199382782 -0.126852810382843018 -0.0723201707005500793
0.0810077711939811707 -0.0309438165277242661 -0.0723201707005500793
0.190840303897857666 -0.276965409517288208 -0.0468380451202392578
-0.197711288928985596 0.09758024662733078 -0.0723201707005500793
0.0651902630925178528 -0.051031697541475296 0.210298225283622742
-0.056126471608877182 0.000627224508207291365 0.210298225283622742
-0.270014315843582153 -0.0644714459776878357 -0.0723201707005500793
-0.247776418924331665 -0.159756973385810852 -0.0723201707005500793
0.0563258789479732513 -0.0632356405258178711 0.155281886458396912
0.158602803945541382 -0.291908591985702515 -0.0509828515350818634
-0.175516918301582336 -0.197499707341194153 -0.0723201707005500793
-0.314560592174530029 0.104012362658977509 -0.00798137113451957703
0.187645778059959412 -0.22434641420841217 -0.0723201707005500793
0.00379840657114982605 -0.115044668316841125 -0.0723201707005500793
-0.125228315591812134 0.272126525640487671 0.0237634740769863129
-0.072600729763507843 0.0423537604510784149 0.210298225283622742
-0.0189556814730167389 -0.338604569435119629 -0.0253575891256332397
0.0981930196285247803 -0.0614042840898036957 0.137360855937004089
0.0588292330503463745 0.0997630134224891663 0.115116633474826813
0.202795371413230896 -0.241021841764450073 0.00832428596913814545
-0.0273615457117557526 -0.016533583402633667 -0.0723201707005500793
0.144038721919059753 -0.298199564218521118 -0.00786426011472940445
-0.14440542459487915 -0.232901588082313538 0.0265962686389684677
-0.131420210003852844 -0.2178974449634552 -0.0723201707005500793
-0.159597247838973999 0.120639964938163757 -0.0723201707005500793
-0.17076408863067627 -0.228334978222846985 -0.0723201707005500793
0.194265305995941162 -0.277549505233764648 -0.0154639426618814468
-0.246384710073471069 -0.231327846646308899 -0.0146423289552330971
-0.0751574710011482239 -0.166034966707229614 -0.0723201707005500793
-0.026091424748301506 0.233261272311210632 0.0265962686389684677
0.00943091604858636856 -0.0841697901487350464 0.156881347298622131
0.135328426957130432 0.0405240841209888458 0.0518053844571113586
-0.161378040909767151 -0.283756047487258911 -0.0031038729939609766
-0.204197242856025696 0.24453580379486084 -0.0646159425377845764
0.113362587988376617 0.0238298960030078888 0.133695706725120544
-0.0970245897769927979 -0.214760512113571167 0.0265962686389684677
-0.0795372352004051208 -0.0293333791196346283 0.14020836353302002
-0.159700199961662292 -0.299183785915374756 -0.0266876854002475739
-0.252845615148544312 -0.107626155018806458 0.0265962686389684677
-0.124275960028171539 -0.0335732549428939819 0.0548581108450889587
-0.337539911270141602 -0.0327862612903118134 -0.0393556505441665649
-0.330353230237960815 -0.0765728726983070374 -0.0378999225795269012
-0.0994317904114723206 -0.100356698036193848 0.0470686852931976318
0.132178604602813721 -0.300985634326934814 -0.00542885670438408852
-0.0109784463420510292 -0.0012601886410266161 0.210298225283622742
-0.198243245482444763 -0.128156319260597229 -0.0723201707005500793
-0.204835295677185059 0.194932699203491211 -0.0723201707005500793
0.114043563604354858 -0.0681983307003974915 -0.0723201707005500793
-0.0645560026168823242 0.137176543474197388 0.0265962686389684677
0.0749883949756622314 0.0882652327418327332 0.121520437300205231
0.108361497521400452 0.0906478613615036011 0.0443816706538200378
-0.00169156678020954132 -0.140404120087623596 0.0548581108450889587
-0.0479186475276947021 -0.066343456506729126 -0.0723201707005500793
0.141926378011703491 -0.0221299733966588974 0.0265962686389684677
-0.143713146448135376 0.0959998071193695068 -0.0723201707005500793
0.120791830122470856 -0.0169823896139860153 0.0548581108450889587
-0.0920274332165718079 -0.141656935214996338 -0.0723201707005500793
0.150100737810134888 -0.249282523989677429 -0.0723201707005500793
-0.198307842016220093 -0.231848433613777161 -0.0723201707005500793
-0.140211105346679688 -0.0416470989584922791 0.0265962686389684677
-0.21333920955657959 -0.196450307965278625 0.0265962686389684677
0.0041621834971010685 0.137416079640388489 0.0548581108450889587
-0.0932418480515480042 -0.117880947887897491 -0.0723201707005500793
-0.082708209753036499 -0.0184452924877405167 0.158232584595680237
0.0910027176141738892 -0.223749220371246338 0.0265962686389684677
-0.134323716163635254 0.0881997644901275635 0.0265962686389684677
-0.293577998876571655 0.0283714607357978821 -0.0723201707005500793
-0.0819237679243087769 0.0819165632128715515 0.101784370839595795
0.114303089678287506 0.01879873126745224 0.135031849145889282
-0.246186599135398865 -0.049986179918050766 -0.0723201707005500793
-0.110355794429779053 0.0352784581482410431 0.105400674045085907
0.142068162560462952 -0.0414059534668922424 0.0265962686389684677
0.0200024750083684921 0.0823705047369003296 0.150784969329833984
-0.310341835021972656 -0.0335372164845466614 0.011166066862642765
-0.304380297660827637 -0.149515897035598755 -0.0203789155930280685
0.139539316296577454 -0.0666726082563400269 -0.0723201707005500793
-0.121107153594493866 -0.122367903590202332 0.0265962686389684677
-0.144042477011680603 0.110621698200702667 0.0265962686389684677
0.137352481484413147 -0.277613282203674316 0.0136039815843105316
0.0762081295251846313 -0.178896278142929077 0.0265962686389684677
-0.234364733099937439 0.147888392210006714 -0.0723201707005500793
-0.0307743232697248459 0.078962668776512146 0.16334870457649231
-0.157237648963928223 0.219053879380226135 0.0265962686389684677
-0.254854738712310791 0.223718911409378052 -0.0236185919493436813
-0.127976655960083008 0.237940996885299683 -0.0723201707005500793
-0.0331145972013473511 0.0779523551464080811 0.171866998076438904
-0.12839837372303009 0.0588494725525379181 0.0484325997531414032
0.0876843556761741638 -0.216211378574371338 0.0265962686389684677
-0.0708723738789558411 -0.301044046878814697 -0.0723201707005500793
0.144250333309173584 -0.0573677048087120056 0.0265962686389684677
-0.161900103092193604 -0.15758068859577179 0.0265962686389684677
-0.135469287633895874 -0.298516005277633667 -0.00449693202972412109
-0.165098056197166443 -0.198416277766227722 -0.0723201707005500793
0.11201149970293045 -0.190407350659370422 0.0265962686389684677
-0.333980649709701538 -0.0588561594486236572 -0.0231965724378824234
0.105313383042812347 -0.18796461820602417 0.0265962686389684677
-0.0819755569100379944 0.0214043296873569489 0.1621847003698349
0.023073418065905571 0.104321040213108063 -0.0723201707005500793
-0.129578158259391785 0.247471749782562256 0.0265962686389684677
-0.236807763576507568 -0.242734551429748535 -0.0211197994649410248
-0.033337663859128952 0.176885664463043213 0.0265962686389684677
0.138589531183242798 -0.0961087197065353394 -0.0723201707005500793
-0.219907328486442566 -0.21179431676864624 0.0180060695856809616
0.157974496483802795 -0.268177926540374756 0.012083972804248333
-0.153733238577842712 0.239831864833831787 0.0265962686389684677
-0.205672606825828552 0.247706502676010132 0.00138097489252686501
-0.0485737770795822144 -0.253259778022766113 -0.0723201707005500793
0.179966136813163757 -0.0551095344126224518 0.0265962686389684677
0.102680861949920654 -0.105736672878265381 -0.0723201707005500793
-0.192138314247131348 0.211652696132659912 -0.0723201707005500793
0.0784587785601615906 -0.0851779729127883911 0.104320183396339417
-0.177888825535774231 0.206010431051254272 0.0265962686389684677
-0.0954297631978988647 -0.298838108777999878 0.009629799984395504
-0.273281395435333252 -0.00905015040189027786 0.0265962686389684677
-0.254781812429428101 0.0850108414888381958 0.0265962686389684677
-0.0745257437229156494 -0.0806212276220321655 0.139643624424934387
-0.208399280905723572 0.121930502355098724 0.0265962686389684677
0.0533249005675315857 -0.219263002276420593 0.0265962686389684677
-0.320434212684631348 0.0926821678876876831 -0.0496237277984619141
-0.248775869607925415 0.0804706364870071411 -0.0723201707005500793
-0.0814695656299591064 -0.0233013220131397247 0.159005030989646912
-0.324051022529602051 -0.0871012657880783081 -0.0122230974957346916
-0.0859372913837432861 -0.11213018000125885 0.0436091125011444092
0.276925772428512573 -0.195733711123466492 -0.0218490865081548691
-0.0667429789900779724 -0.150862008333206177 -0.0723201707005500793
-0.13133867084980011 0.0520122312009334564 0.0548388287425041199
0.204424038529396057 -0.236049160361289978 -0.0709140151739120483
-0.00993520673364400864 -0.220318838953971863 -0.0723201707005500793
-0.0530554428696632385 -0.300930649042129517 -0.0723201707005500793
0.0724446028470993042 0.132364034652709961 0.0265962686389684677
-0.203085586428642273 -0.209976360201835632 0.0265962686389684677
0.0693866759538650513 -0.275583237409591675 -0.0723201707005500793
-0.113797634840011597 0.0242993719875812531 0.0548581108450889587
0.0582764111459255219 -0.209960371255874634 -0.0723201707005500793
-0.273179769515991211 0.109029777348041534 -0.0723201707005500793
-0.0524171702563762665 -0.0178881697356700897 0.210298225283622742
-0.0751842483878135681 -0.222208291292190552 -0.0723201707005500793
0.077982582151889801 -0.322131693363189697 -0.0517605170607566833
0.0447048358619213104 0.179750695824623108 0.0265962686389684677
